0.301561741115 0.004495551056 0.204767692979 6 12 8
0.320470385208 0.005497410811 0.218970960457 6 12 8
0.144743313539 0.000412224005 0.092337522668 5 9 6
0.224725911937 0.002684837159 0.172440699497 6 12 8
0.389174033308 0.008124871873 0.249424608695 7 15 10
0.241682303438 0.003265933929 0.184078439527 6 12 8
0.476128944090 0.012391671527 0.287106983874 7 15 10
0.270679926068 0.003586130013 0.189907654269 6 12 8
0.322201891705 0.004170211393 0.199703870778 5 9 6
0.276156170784 0.003127187065 0.181433890353 6 12 8
0.322676388275 0.003152044815 0.181913356469 5 9 6
0.367722884519 0.006687856529 0.233756004364 7 15 10
0.383575617591 0.006776601071 0.234785406597 7 15 10
0.248372694587 0.002321215252 0.164275298282 6 12 8
0.233132109542 0.002686422444 0.172474632515 6 12 8
0.463240784076 0.012143102485 0.285174274944 7 15 10
0.300851751911 0.004924978378 0.211090441694 6 12 8
0.185514963734 0.001569836455 0.144195573715 5 9 6
0.216964289513 0.002269870211 0.163055005111 6 12 8
0.209989814514 0.001911147882 0.153968504101 5 9 6
0.205739613691 0.001206428135 0.132079153907 5 9 6
0.158299258764 0.001170818007 0.130766627606 6 11 7
0.205139234199 0.001236196251 0.133156672308 5 9 6
0.290530394200 0.004299038641 0.201739485443 6 12 8
0.208946421102 0.001695211801 0.147936423447 5 9 6
0.163694514001 0.001368214309 0.137737385567 6 11 7
0.253688657417 0.003480884426 0.188031377295 7 14 9
0.265659339958 0.002666291282 0.172042729229 5 9 6
0.415975952545 0.007876405059 0.246855688819 8 18 12
0.374668140356 0.005981043484 0.225212649161 5 9 6
0.198264118949 0.001422798108 0.139545194558 5 9 6
0.503986933435 0.010581364997 0.272383643174 7 15 10
0.046995716881 0.000105073993 0.058546221442 4 6 4
0.321600322409 0.005535987803 0.219481962155 6 12 8
0.262243491316 0.001391110165 0.138501443770 5 9 6
0.208138521971 0.001984078221 0.155902611197 5 9 6
0.184319807378 0.001527846464 0.142898289526 6 11 7
0.225957533708 0.002319587424 0.164236888160 5 9 6
0.316084063605 0.003924660096 0.195704648970 6 12 8
0.264524536490 0.003312901609 0.184956658996 6 11 7
0.215532832861 0.002394350425 0.165982778344 6 12 8
0.339072278338 0.005088185049 0.213396892899 6 12 8
0.214134322333 0.002450773912 0.167276477857 6 12 8
0.349932794167 0.006270611654 0.228790029513 6 12 8
0.173584253043 0.001025519278 0.125116638805 5 9 6
0.196173578690 0.001600315500 0.145122804688 5 9 6
0.224457129438 0.002586821522 0.170316195676 6 12 8
0.205330514048 0.001664329494 0.147032574755 5 9 6
0.268617635632 0.002994748914 0.178835581528 6 12 8
0.429318749972 0.008733167223 0.255500086361 6 12 8
0.285968252657 0.002296831519 0.163698049850 5 9 6
0.176563975772 0.001701088036 0.148107160575 6 12 8
0.370719572563 0.007041967634 0.237810924246 7 15 10
0.289804037230 0.004443653131 0.203976675640 6 12 8
0.269125737412 0.003661223807 0.191224067502 6 12 8
0.456473221357 0.010115992119 0.268330446511 6 12 8
0.339848299607 0.003436374958 0.187226495280 6 12 8
0.165222525829 0.001151245465 0.130033854631 5 9 6
0.380370112536 0.008017152349 0.248317410901 7 15 10
0.201353351014 0.001759015723 0.149769610289 5 9 6
0.332523823895 0.004459136220 0.204213307379 5 9 6
0.297969005851 0.004512962632 0.205031712170 6 12 8
0.290771454554 0.003806073872 0.193713340454 6 12 8
0.282445145390 0.005130080783 0.213980990685 8 18 12
0.379558780516 0.007097939909 0.238439333204 7 15 10
0.345483737749 0.005270915972 0.215921467644 6 12 8
0.315139228579 0.005142631699 0.214155352478 6 12 8
0.265198504791 0.002949552703 0.177931365949 5 9 6
0.302372751261 0.004205281763 0.200262127593 6 12 8
0.293654538170 0.004031787667 0.197469340886 6 12 8
0.338653359889 0.006117957174 0.226918168734 7 15 10
0.396346514256 0.006679094669 0.233653877353 5 9 6
0.237168493022 0.002570009600 0.169946428109 5 9 6
0.240160550742 0.002453596332 0.167340667553 5 9 6
0.211887637312 0.000587306593 0.103901563934 5 9 6
0.220813071304 0.002809205672 0.175063243829 6 12 8
0.181205151253 0.001212073290 0.132284842997 5 9 6
0.181425494587 0.001390710875 0.138488191164 5 9 6
0.290157470076 0.003960887601 0.196304971650 6 12 8
0.214427324578 0.002665946084 0.172035304269 6 12 8
0.336508813753 0.005520343797 0.219275024283 6 12 8
0.326220538656 0.005256534154 0.215724906488 6 12 8
0.245366261545 0.001811625642 0.151248106228 5 9 6
0.184200292419 0.001536809384 0.143177176508 5 9 6
0.187717208373 0.001470212952 0.141078404900 5 9 6
0.364145610529 0.007846750982 0.246545501471 7 15 10
0.310462765270 0.003251152778 0.183800315274 6 12 8
0.194641238111 0.001097681007 0.127985030355 5 9 6
0.145764371561 0.000860231483 0.117997345336 5 9 6
0.244262859589 0.001029804740 0.125290676642 5 9 6
0.323898904507 0.006099449589 0.226689119014 7 15 10
0.238488986471 0.002812731065 0.175136444681 6 12 8
0.246184086563 0.002971224246 0.178366080643 6 12 8
0.333905935540 0.006601843966 0.232749564890 7 15 10
0.295891632892 0.005334520730 0.216786513886 7 15 10
0.289551826138 0.004655300470 0.207164990754 6 12 8
0.248373005247 0.002938311758 0.177705042035 6 12 8
0.155994575565 0.001362084098 0.137531369259 6 12 8
0.300141288462 0.005545185975 0.219603453015 7 15 10
0.179815711260 0.001062706024 0.126611019732 5 9 6
0.250578407493 0.002882476101 0.176572214692 5 9 6
0.257912756139 0.002795407428 0.174776148293 6 12 8
0.334209379338 0.006172903043 0.227595468629 7 15 10
0.305717273915 0.005461789045 0.218496977272 7 15 10
0.277952181479 0.002411155007 0.166370186273 5 9 6
0.191590443406 0.001375847248 0.137993045317 5 9 6
0.273001417685 0.003541701951 0.189120146725 6 12 8
0.338849479773 0.006256335969 0.228616276333 6 12 8
0.170412384381 0.001104642385 0.128255016315 5 9 6
0.332408000381 0.005051164360 0.212878087235 6 11 7
0.216599350569 0.002221206251 0.161881326665 6 12 8
0.244958160549 0.002452771666 0.167321917452 6 11 7
0.070611089045 0.000290064111 0.082129363803 4 6 4
0.445017040024 0.010946091309 0.275477932415 7 15 10
0.412620989921 0.009295727016 0.260872467707 7 15 10
0.273902978896 0.004063017688 0.197977892530 7 15 10
0.302034986896 0.004597731156 0.206307484426 6 12 8
0.209336051351 0.001814653239 0.151332314840 5 9 6
0.443333813398 0.010426618438 0.271049297597 7 15 10
0.266429306759 0.002255491612 0.162709982363 5 9 6
0.197901785556 0.001737407945 0.149153824455 5 9 6
0.356026135583 0.005542129871 0.219563102434 6 12 8
0.239755714750 0.003301898542 0.184751667718 6 12 8
0.561867313640 0.018645335357 0.328995930178 8 18 12
0.303941724760 0.005346726247 0.216951725611 7 15 10
0.216882766328 0.002678562060 0.172306249803 6 12 8
0.334701348266 0.004777942073 0.208968465019 6 12 8
0.253586329619 0.002943991193 0.177819463135 5 9 6
0.321600798776 0.005391221526 0.217551885531 7 15 10
0.203853505106 0.001833300917 0.151848921291 5 9 6
0.255375705083 0.000947052662 0.121840545735 5 9 6
0.331418644594 0.005702548898 0.221661430612 8 17 11
0.271098957287 0.002811098126 0.175102546122 5 9 6
0.247044307429 0.003294017104 0.184604553474 6 12 8
0.300229030190 0.005004275674 0.212217340604 6 12 8
0.324873338682 0.006370607228 0.229999770444 7 15 10
0.217116003141 0.001701705780 0.148125086593 5 9 6
0.264674878246 0.003823820886 0.194013956787 6 12 8
0.255705486884 0.003816512672 0.193890275984 7 15 10
0.329292645422 0.006239216117 0.228407557139 7 15 10
0.321387034816 0.003716567982 0.192182786612 5 9 6
0.247818164837 0.001152990194 0.130099510875 5 9 6
0.287363184970 0.004119430356 0.198889954109 6 12 8
0.248814127809 0.003248133531 0.183743401063 6 12 8
0.243382879900 0.003155827403 0.181986095318 6 12 8
0.201856897564 0.001979524135 0.155783237900 6 12 8
0.283073826074 0.004526197011 0.205231936839 7 14 9
0.239558279239 0.003152073457 0.181913907468 6 12 8
0.322305190491 0.005682079651 0.221395895431 7 15 10
0.273093606194 0.004112535545 0.198778929507 6 12 8
0.247894116505 0.003249140077 0.183762378846 6 12 8
0.330476614031 0.004742806236 0.208454969627 6 12 8
0.300934643319 0.003442578377 0.187339089337 6 12 8
0.167211441170 0.001258233296 0.133943255521 5 9 6
0.219616737337 0.002102050112 0.158933268298 6 11 7
0.193807720862 0.001706608061 0.148267190016 6 12 8
0.257361513679 0.003765737030 0.193026582764 6 12 8
0.279952277817 0.003985119331 0.196704473134 7 15 10
0.196065033619 0.001539268775 0.143253512383 5 9 6
0.246217325657 0.002597648636 0.170553483802 6 12 8
0.154609428206 0.001069013196 0.126861005133 5 9 6
0.363795055976 0.006865052607 0.235802505728 6 12 8
0.273419958932 0.003799098890 0.193594935563 6 12 8
0.277954994725 0.002826187327 0.175415287988 5 9 6
0.301103765715 0.004055029717 0.197848064639 6 12 8
0.348005979124 0.006923628072 0.236471262081 6 12 8
0.247745732454 0.002760448091 0.174044506901 5 9 6
0.217095440495 0.002670606175 0.172135485527 6 12 8
0.095236176244 0.000416344428 0.092644159324 5 9 6
0.228313584920 0.002298210421 0.163730801997 5 9 6
0.191663818675 0.001693044536 0.147873352836 5 9 6
0.226448076607 0.001852827881 0.152386145844 5 9 6
0.198257013606 0.001364124849 0.137600020705 6 12 8
0.345894857461 0.005100287969 0.213565956497 6 12 8
0.411639869046 0.006892573169 0.236117179939 5 9 6
0.153634115948 0.000777758314 0.114099046005 5 9 6
0.283450284589 0.004509070762 0.204972757086 6 12 8
0.242320713804 0.002614282724 0.170916756875 5 9 6
0.297680000548 0.004327113617 0.202177687795 7 15 10
0.365707013980 0.007565982596 0.243569126447 6 12 8
0.243410446395 0.001927731992 0.154412579303 5 9 6
0.209274555970 0.002006623393 0.156490898067 5 9 6
0.388224434531 0.009064318534 0.258689526281 8 18 12
0.229860274462 0.002840691882 0.175714864771 6 12 8
0.245438588120 0.003750011567 0.192757519223 7 15 10
0.302204201244 0.004789643100 0.209138911646 6 12 8
0.324985157440 0.004096948075 0.198527472014 5 9 6
0.220911682041 0.001854592526 0.152434508329 5 9 6
0.310319943963 0.005025736832 0.212520277205 7 15 10
0.353710324253 0.004672049718 0.207413145502 5 9 6
0.254524537733 0.002765144318 0.174143149028 5 9 6
0.195662836012 0.001034837403 0.125494443890 5 9 6
0.258712819139 0.003427334499 0.187062165133 6 12 8
0.254073392797 0.003036835835 0.179669446979 6 12 8
0.577588275513 0.018274571685 0.326800612265 8 18 12
0.329350748693 0.005949283357 0.224813305215 7 15 10
0.141444034965 0.000438947990 0.094291269057 5 9 6
0.314798873329 0.003981333201 0.196642159270 5 9 6
0.370719019519 0.007074691197 0.238178719059 6 12 8
0.122094222825 0.000590566689 0.104093459327 5 9 6
0.175152423485 0.001089496530 0.127666144538 5 9 6
0.278687392817 0.003494863868 0.188282756199 7 13 8
0.239368397931 0.002604113607 0.170694856509 5 9 6
0.477111515273 0.011157269750 0.277238221158 6 12 8
0.179618504613 0.001226717354 0.132815459454 5 9 6
0.297822254758 0.003930202373 0.195796728203 6 12 8
0.188328802877 0.001389068332 0.138433647719 5 9 6
0.219125060101 0.002297939222 0.163724361422 6 12 8
0.338808725513 0.005823572305 0.223218550275 6 12 8
0.240306732095 0.002356199610 0.165096482026 5 9 6
0.188325035636 0.001577525552 0.144430614847 6 12 8
0.278512126633 0.003499872164 0.188372652463 5 9 6
0.355907948806 0.006275723660 0.228852184973 6 12 8
0.348248530315 0.005137570105 0.214085069190 6 12 8
0.258827377295 0.003427471865 0.187064664214 6 12 8
0.303917952257 0.004785579383 0.209079747746 6 12 8
0.207441684652 0.002012876277 0.156653277767 6 12 8
0.328251883382 0.005589010964 0.220180462559 6 12 8
0.246115720517 0.002460482108 0.167497063025 6 12 8
0.255932693697 0.002765912801 0.174159280020 6 12 8
0.170182600924 0.001025184617 0.125103027420 5 9 6
0.235761592255 0.002263341274 0.162898520653 5 9 6
0.236521216831 0.002284045095 0.163393716265 6 12 8
0.173742899628 0.001181732717 0.131171719725 5 9 6
0.436758576085 0.010506697914 0.271741441252 6 12 8
0.314907604999 0.004498840762 0.204817628374 6 12 8
0.186906344265 0.001989911553 0.156055249988 6 12 8
0.338919516268 0.004483089967 0.204578321340 7 14 9
0.274473238343 0.002894297785 0.176813272925 5 9 6
0.266074239415 0.003760232014 0.192932477004 6 12 8
0.288419918270 0.004501815968 0.204862768911 6 12 8
0.209396197747 0.002391047429 0.165906419050 6 12 8
0.298830281382 0.002763165507 0.174101598621 6 12 8
0.290544986031 0.005048834583 0.212845353214 7 15 10
0.238764934907 0.001394414678 0.138611024813 6 12 8
0.323090221850 0.005154552765 0.214320701676 6 12 8
0.391240105582 0.008538492886 0.253587319377 6 12 8
0.370120559005 0.007143761607 0.238951325352 8 18 12
0.254797381517 0.003187079118 0.182584850755 6 12 8
0.205953681733 0.001929148528 0.154450391874 6 11 7
0.280814573671 0.003707707961 0.192029948624 7 15 10
0.288757288014 0.005107632410 0.213668419353 7 15 10
0.361074972334 0.007900356965 0.247105662470 8 18 12
0.256329549552 0.002842616910 0.175754547547 6 12 8
0.264544048763 0.002491792180 0.168204547150 5 9 6
0.223691622319 0.001220385890 0.132586564762 5 9 6
0.268435710036 0.003746114720 0.192690727710 6 12 8
0.202473306855 0.001476833213 0.141289843095 5 9 6
0.259340093885 0.003958512948 0.196265733851 7 14 9
0.387437620449 0.007075444283 0.238187169968 6 12 8
0.342512975039 0.004175321309 0.199785405691 5 9 6
0.391457570410 0.006827121372 0.235367412958 5 9 6
0.244218768912 0.002596403501 0.170526228888 6 11 7
0.351300542946 0.007326771266 0.240974638301 7 15 10
0.175424723512 0.000871273005 0.118500053215 5 9 6
0.274438438962 0.003764513025 0.193005666882 6 12 8
0.213625236617 0.001517493982 0.142574804598 5 9 6
0.193622600164 0.001667776296 0.147134005536 5 9 6
0.253919850054 0.003543502264 0.189152185718 6 12 8
0.149336646754 0.000961909381 0.122474360186 5 9 6
