0.181013607923 0.005146449079 0.214208328610 14 36 24
0.095571442466 0.001771870744 0.150133567686 9 21 14
0.085530673298 0.001385370504 0.138310697524 6 12 8
0.162743130520 0.003751814642 0.192788408076 9 21 14
0.242529392734 0.006218316661 0.228152240146 13 33 22
0.167520755909 0.004538991040 0.205425128688 13 33 22
0.157892715360 0.004490214354 0.204686633821 13 33 22
0.203778162466 0.005362942386 0.217170835924 12 30 20
0.076584257877 0.001215670738 0.132415588072 9 21 14
0.151411974744 0.003778599522 0.193246104311 13 33 22
0.118639828671 0.002622323960 0.171091817673 12 30 20
0.146200478252 0.003882177923 0.194995955881 12 30 20
0.178234757269 0.004827897039 0.209694219692 14 36 24
0.132642479000 0.003038795690 0.179708089219 14 36 24
0.136276654801 0.002551058295 0.169527667577 9 21 14
0.102617040796 0.002015319392 0.156716631091 9 21 14
0.168650334865 0.005020269960 0.212443191140 17 45 30
0.145476007352 0.003637300311 0.190806652552 11 27 18
0.180356898331 0.005246308742 0.215584934175 14 36 24
0.148829417360 0.003575518984 0.189720162795 18 48 32
0.150971516276 0.003768277839 0.193069985813 12 30 20
0.113855872523 0.002296929344 0.163700373847 17 45 30
0.134323167123 0.003489094653 0.188179095314 15 39 26
0.171433193901 0.005007789270 0.212266996245 15 39 26
0.041205265200 0.000409697363 0.092148481325 5 9 6
0.067900991688 0.000934183097 0.121286126865 10 24 16
0.151124938593 0.003824024849 0.194017406303 18 48 32
0.112190646797 0.001771940318 0.150135532710 12 30 20
0.144682862102 0.003327479422 0.185227551282 15 39 26
0.095574319329 0.001927013946 0.154393404949 12 30 20
0.117170126985 0.002261570696 0.162856031867 10 24 16
0.109547699648 0.002266811250 0.162981725852 8 18 12
0.169447030956 0.004121195696 0.198918360816 8 18 12
0.086160797307 0.001270801162 0.134387743044 9 21 14
0.084375706980 0.001213858795 0.132349767404 10 24 16
0.070505351622 0.001147056011 0.129875929151 8 18 12
0.160267697007 0.003657985204 0.191167667287 13 33 22
0.163627718635 0.004162453674 0.199579959549 14 36 24
0.174924328817 0.004241678101 0.200838219048 14 36 24
0.119750203426 0.002551050648 0.169527498183 11 27 18
0.109934630613 0.001805459319 0.151076307531 11 27 18
0.121998257620 0.002559167206 0.169707100399 14 36 24
0.083068459546 0.001413391002 0.139236970903 10 24 16
0.076373438866 0.001495083910 0.141869481591 11 27 18
0.167699856463 0.004247282197 0.200926629136 10 24 16
0.110217730005 0.002274687318 0.163170268445 12 30 20
0.103827307068 0.002224590781 0.161963506363 12 30 20
0.113419091217 0.002452109610 0.167306861492 13 33 22
0.113390617738 0.002070475431 0.158133476804 10 24 16
0.079362754827 0.001291998107 0.135130821908 9 21 14
0.094894022809 0.002083286988 0.158458969168 12 30 20
0.121789705162 0.002150938665 0.160155970942 9 21 14
0.120215203773 0.002523901965 0.168923972701 9 21 14
0.122449068675 0.002091151201 0.158658108028 15 39 26
0.109533830096 0.002089864956 0.158625571723 12 30 20
0.078733165921 0.001091324467 0.127737503260 9 21 14
0.210055350956 0.004246650131 0.200916661560 13 33 22
0.175504941682 0.005251747521 0.215659406462 17 45 30
0.130565472560 0.003024959155 0.179434919497 13 33 22
0.121581874887 0.002126574245 0.159548959343 11 27 18
0.074310018773 0.001077802804 0.127207747436 10 24 16
0.093905732886 0.001744487525 0.149356140287 11 27 18
0.169482941915 0.004324824652 0.202142032056 9 21 14
0.217378999543 0.006989861011 0.237222915584 13 33 22
0.142550012671 0.003309170316 0.184887194542 11 27 18
0.135269740634 0.003199951628 0.182830338650 16 42 28
0.151046674068 0.003648597956 0.191004000183 9 21 14
0.175351700035 0.005265683471 0.215849994717 15 39 26
0.158664552645 0.004105744902 0.198669460920 10 24 16
0.140816296652 0.003455535308 0.187573826250 9 21 14
0.380220300793 0.013757700215 0.297291441285 21 57 38
0.167128342295 0.004295336471 0.201681558666 12 30 20
0.306424767334 0.010051388439 0.267758014011 14 36 24
0.260614450660 0.008398649267 0.252195272310 15 39 26
0.269899638363 0.009456842200 0.262371005699 14 36 24
0.353614089043 0.012078906757 0.284670852637 18 48 32
0.222645832856 0.006680235353 0.233667178053 13 33 22
0.184178996663 0.003385337201 0.186294959164 10 24 16
0.403371612250 0.016148971948 0.313604355629 23 63 42
0.328499162618 0.009873083601 0.266165276447 20 54 36
0.334059381590 0.013052714878 0.292124115013 21 57 38
0.312835777692 0.011039240821 0.276257150838 30 84 56
0.150519166659 0.003828136577 0.194086919538 12 30 20
0.269294463647 0.009192296152 0.259901305991 19 51 34
0.492987658284 0.019679627257 0.334970130176 29 81 54
0.212006618495 0.005702674457 0.221663057452 22 60 40
0.115260214154 0.001667378490 0.147122306217 15 39 26
0.365456823608 0.013327621170 0.294160714982 23 63 42
0.327614589881 0.011896347701 0.283229406469 19 51 34
0.247183499436 0.005314169123 0.216510476820 21 57 38
0.169103026951 0.004382405133 0.203035182604 16 42 28
0.166687501088 0.004338618286 0.202356708518 14 36 24
0.261499216743 0.008211517440 0.250308116584 19 51 34
0.272220104846 0.008774500172 0.255902535054 12 30 20
0.340197245532 0.012711454306 0.289555758356 17 45 30
0.287134377797 0.009266831776 0.260601884726 17 45 30
0.193940998205 0.004878880022 0.210429765887 18 48 32
0.336841210719 0.012708891426 0.289536296995 18 48 32
0.314507431946 0.009917169477 0.266560853883 14 36 24
0.217507612048 0.006459742687 0.231067499976 14 36 24
0.430222297862 0.014821918246 0.304767461058 10 24 16
0.926895293312 0.044277722099 0.438930287289 25 69 46
0.849699047951 0.034568149687 0.404165436350 19 51 34
0.406624720628 0.016148233385 0.313599574727 18 48 32
0.726752780570 0.041948540820 0.431094761391 10 24 16
0.478836048134 0.016552912145 0.316197619422 17 45 30
0.528143833946 0.023843410399 0.357100055130 23 63 42
0.214898210896 0.005781938834 0.222685338161 7 15 10
0.121502924566 0.003132018435 0.181527278134 14 36 24
0.060536548075 0.000970455398 0.122835996264 13 33 22
0.082842613612 0.001506021786 0.142214608713 10 24 16
0.062546873573 0.000965378457 0.122621416014 17 45 30
0.129825115137 0.003449608452 0.187466524085 15 39 26
0.068538983601 0.000926195942 0.120939476359 11 27 18
0.074727298863 0.001016764794 0.124759595869 10 24 16
0.093688643057 0.001879142759 0.153104181066 16 42 28
0.139707890868 0.003796770220 0.193555372605 17 45 30
0.068587912439 0.000796715923 0.115018656797 8 18 12
0.075002235562 0.001271862330 0.134425138955 11 27 18
0.075586045092 0.001475725703 0.141254515468 16 42 28
0.087601513366 0.001698380007 0.148028526268 11 27 18
0.066294925836 0.000892393631 0.119449942909 14 36 24
0.096261316230 0.002143290135 0.159965912452 12 30 20
0.082839470748 0.001416254822 0.139330948350 11 27 18
0.113296070927 0.002585595654 0.170289287717 13 33 22
0.043915507066 0.000483281043 0.097364441982 7 15 10
0.091539407388 0.001880761841 0.153148140293 15 39 26
0.091506507465 0.001453292697 0.140535105162 12 30 20
0.147853335234 0.003943978811 0.196025235173 15 39 26
0.101834204510 0.001856071761 0.152475025139 12 30 20
0.089950186464 0.001996622649 0.156230488348 16 42 28
0.068967224789 0.000922413912 0.120774636960 12 30 20
0.066607962862 0.000804204496 0.115377898596 9 21 14
0.060210675466 0.000782267939 0.114319145528 13 33 22
0.106516167979 0.002513088624 0.168682382840 17 45 30
0.119379077266 0.002790330500 0.174670276594 15 39 26
0.050562069120 0.000521558533 0.099869945053 6 12 8
0.085761420866 0.001649120816 0.146583341331 10 24 16
0.073177528628 0.000913214039 0.120371771579 11 27 18
0.076286782847 0.001289568238 0.135046054960 12 30 20
0.065501995842 0.001006849673 0.124352733717 12 30 20
0.139969761342 0.002932625418 0.177590333994 16 42 28
0.079923520780 0.001440275757 0.140114261728 11 27 18
0.053318889420 0.000747602389 0.112604916442 10 24 16
0.088490234315 0.001710636899 0.148383771152 14 36 24
0.137658692557 0.003473638675 0.187900819002 15 39 26
0.097509341561 0.001850534901 0.152323257718 10 24 16
0.096855435705 0.002229082501 0.162072441089 18 48 32
0.092342109970 0.001767574893 0.150012137949 12 30 20
0.085253430286 0.001753397401 0.149609984770 12 30 20
0.107286040487 0.002144439888 0.159994511529 17 45 30
0.097645968625 0.001772076021 0.150139365286 18 48 32
0.111088200939 0.002424447039 0.166675343858 14 36 24
0.080736063937 0.001196428232 0.131713212793 8 18 12
0.101495366809 0.002293342397 0.163615116482 15 39 26
0.093035541233 0.001896424610 0.153572098971 13 33 22
0.140856068318 0.003377261592 0.186146707749 15 39 26
0.093230293237 0.002015311835 0.156716435217 14 36 24
0.087423602375 0.001587844427 0.144744846125 12 30 20
0.082437689670 0.001562210130 0.143961692040 14 36 24
0.074353341995 0.001356135754 0.137330873148 15 39 26
0.095688724902 0.001688686801 0.147746373216 11 27 18
0.055001626729 0.000838331351 0.116987383695 11 27 18
0.118356910489 0.002968149182 0.178304526150 19 51 34
0.099554677337 0.002140140645 0.159887519254 12 30 20
0.034243875856 0.000383024462 0.090103700904 7 15 10
0.079838974262 0.001451958625 0.140492089862 9 21 14
0.097850844125 0.001737316297 0.149151201794 12 30 20
0.067088055553 0.001017769129 0.124800660475 12 30 20
0.044157492470 0.000471552788 0.096570370614 7 15 10
0.052191558990 0.000699456405 0.110133813219 8 18 12
0.082582798889 0.001505806636 0.142207836126 11 27 18
0.100198557551 0.002382061227 0.165698317747 16 42 28
0.088009324394 0.001817829837 0.151420567096 11 27 18
0.078552901224 0.001509433853 0.142321928936 16 42 28
0.057237195306 0.000555164669 0.101970464835 9 21 14
0.115788210448 0.002850246651 0.175911652057 16 42 28
0.099699740814 0.001994395516 0.156172377655 13 33 22
0.113089756837 0.002608429774 0.170789110052 12 30 20
0.129286351481 0.002880292908 0.176527624722 9 21 14
0.048498597214 0.000648577436 0.107395908899 10 24 16
0.067480694514 0.001148449805 0.129928512197 13 33 22
0.123088899038 0.002763019429 0.174098530541 11 27 18
0.137061098963 0.003203954785 0.182906547467 14 36 24
0.091717553749 0.001551892332 0.143644054483 12 30 20
0.075804765541 0.001384845285 0.138293216596 16 42 28
0.077784233031 0.001399384504 0.138775503834 9 21 14
0.061943306283 0.000914638896 0.120434343063 10 24 16
0.095431099847 0.001996009915 0.156214505119 13 33 22
0.092258516730 0.001623497453 0.145820191104 13 33 22
0.114197217583 0.002465068524 0.167601071689 9 21 14
0.054634904524 0.000803555145 0.115346836443 11 27 18
0.068148238669 0.001074225398 0.127066850242 10 24 16
0.088818919766 0.001780929107 0.150388976353 15 39 26
0.075248074904 0.001197806807 0.131763781904 11 27 18
0.059793162926 0.000979375192 0.123211191928 17 45 30
0.063749807258 0.000878954333 0.118847275339 11 27 18
0.057107327930 0.000575342783 0.103191204658 9 21 14
0.054446585096 0.000737212939 0.112080856798 12 30 20
0.106551818505 0.002348791953 0.164923284765 16 42 28
0.108915291039 0.001904449944 0.153788424106 14 36 24
0.069824930229 0.001236623752 0.133172019956 14 36 24
0.111709601136 0.002379847198 0.165646965216 15 39 26
0.114612238955 0.002660984049 0.171928503485 14 36 24
0.065705244632 0.001028668582 0.125244582989 12 30 20
0.088054465859 0.001850110436 0.152311610468 14 36 24
0.078846757838 0.001336399265 0.136661400999 13 33 22
0.089663398094 0.002023373136 0.156925113874 20 54 36
0.074221015084 0.001369436009 0.137778369330 12 30 20
0.138638983111 0.003288817140 0.184507362870 11 27 18
0.183674357306 0.004811454556 0.209455895412 10 24 16
0.152464927902 0.004074420221 0.198162922569 12 30 20
0.107986440989 0.001764144856 0.149915040621 9 21 14
0.184278616079 0.005377886721 0.217372371054 13 33 22
0.134039149734 0.003550573259 0.189277918723 12 30 20
0.132849739615 0.003117268657 0.181241870999 15 39 26
0.097000588701 0.001800212525 0.150929819361 12 30 20
0.078025278066 0.001408382385 0.139072305435 9 21 14
0.103507927557 0.002294189074 0.163635248980 13 33 22
0.079965904187 0.001252652805 0.133744941248 6 12 8
0.104204475607 0.001839363679 0.152016126229 10 24 16
0.126821101919 0.002907146903 0.177074538477 12 30 20
0.128404738259 0.003100113276 0.180908780833 8 18 12
0.284601142151 0.010028537588 0.267554952811 12 30 20
0.167255160224 0.004062775365 0.197973956581 18 48 32
0.065971083060 0.001063259408 0.126632992708 11 27 18
0.111346779637 0.002196293022 0.161273825016 16 42 28
0.117331866742 0.002012596923 0.156646030489 6 12 8
0.148455597818 0.004097171560 0.198531081784 17 45 30
0.097958785772 0.002176635535 0.160791232521 14 36 24
0.167766025783 0.004326270017 0.202164548313 14 36 24
0.182501760366 0.005155173297 0.214329301673 14 36 24
0.099633882654 0.001554621172 0.143728199529 9 21 14
0.172747788139 0.004325859100 0.202158147460 10 24 16
0.063583407406 0.000846131743 0.117349106892 14 36 24
0.167985062941 0.004520316225 0.205143013890 13 33 22
0.102273643906 0.002067998715 0.158070398234 16 42 28
0.111729624067 0.002296467296 0.163689396518 13 33 22
0.148405442868 0.003288934202 0.184509551962 9 21 14
0.066046301372 0.001110818936 0.128493615921 6 12 8
0.179952760981 0.004919586811 0.211013383894 12 30 20
0.161098893694 0.004341134404 0.202395818901 13 33 22
0.187806059388 0.004025886455 0.197372950442 12 30 20
0.089974979826 0.001905091538 0.153805692186 14 36 24
0.097434802457 0.002189705515 0.161112423305 14 36 24
0.088824633733 0.001266048576 0.134220004469 11 27 18
0.115276012412 0.002455268252 0.167378668470 12 30 20
0.066191976566 0.000868294891 0.118364883352 7 15 10
0.130544092996 0.003246665653 0.183715718139 15 39 26
0.166086231344 0.003588828691 0.189955279532 13 33 22
0.099592796251 0.002001547342 0.156358831013 13 33 22
0.103141129847 0.002003584611 0.156411862808 10 24 16
0.083124047499 0.001367006319 0.137696837729 10 24 16
0.097558846340 0.001535543461 0.143137852393 12 30 20
0.105558296418 0.002070827143 0.158142430372 9 21 14
0.113471397309 0.002525642366 0.168962791959 10 24 16
0.157805534016 0.004713406301 0.208023349667 15 39 26
0.128147982232 0.003175234290 0.182358376826 13 33 22
0.058980721449 0.000866290429 0.118273731230 8 18 12
0.108975492428 0.002408059392 0.166298956431 9 21 14
