0.138121361163 0.001378756040 0.138090224370 11 27 18
0.191330245182 0.003423663119 0.186995347256 19 51 34
0.215798168533 0.003982699924 0.196664657974 14 36 24
0.223529396640 0.004118538954 0.198875607165 10 24 16
0.214866822261 0.003930883433 0.195808037356 7 15 10
0.197741975451 0.003544650074 0.189172606893 7 15 10
0.179413093165 0.003163804740 0.182139308478 6 12 8
0.158924618973 0.002724608511 0.173288002464 8 18 12
0.077221338953 0.000341129479 0.086690906189 5 9 6
0.014889825996 0.000051102811 0.046041421291 5 9 6
0.078923897755 0.000910457289 0.120250526046 6 12 8
0.150198908582 0.002339461718 0.164704617027 9 21 14
0.196498064500 0.003584948000 0.189886787018 16 42 28
0.173022745676 0.002800491940 0.174882049764 16 42 28
0.100732086643 0.001250663614 0.133674108862 14 36 24
0.025403375026 0.000141458912 0.064646333246 10 24 16
0.276313648377 0.011567374489 0.280594222481 38 108 72
0.067352683296 0.000656560957 0.107834768524 16 42 28
0.103284823250 0.001679605476 0.147481049627 17 45 30
0.106908900157 0.001759928862 0.149795521892 24 66 44
0.069805567456 0.000771323416 0.113783502406 19 51 34
0.007746955467 0.000024115199 0.035845178115 8 18 12
0.003949847714 0.000006974741 0.023705174157 4 6 4
0.076076391586 0.000678357109 0.109015082060 7 15 10
0.173819667900 0.002535855403 0.169190232760 9 21 14
0.227596269558 0.004149031844 0.199365213392 10 24 16
0.230449148442 0.004272738175 0.201327246051 9 21 14
0.215627171015 0.003966522982 0.196398025630 10 24 16
0.184843956247 0.003230243342 0.183405436937 10 24 16
0.128237529321 0.001836030525 0.151924246719 11 27 18
0.038622443702 0.000212866667 0.074080347771 7 15 10
0.006748135834 0.000010370788 0.027056464180 5 9 6
0.082282724284 0.001005821523 0.124310391454 11 27 18
0.155536292514 0.002498825316 0.168362652113 14 36 24
0.214912399032 0.003882181446 0.194996014863 18 48 32
0.232934199091 0.004362831078 0.202732445239 19 51 34
0.213194264307 0.003890225681 0.195130605134 15 39 26
0.169066262814 0.002771050190 0.174267040781 13 33 22
0.092069874441 0.001095939807 0.127917322331 7 15 10
0.017673853780 0.000065910893 0.050117129800 5 9 6
0.118220785909 0.003182371063 0.182494899723 18 48 32
0.150639041020 0.004091991379 0.198447376840 11 27 18
0.167549518336 0.000875201562 0.118677891167 6 12 8
0.394111890725 0.006993236724 0.237261097917 9 21 14
0.438588058954 0.008788238346 0.256036020352 8 18 12
0.468463459703 0.009454995191 0.262353923426 8 18 12
0.497125051924 0.010123252367 0.268394624754 14 36 24
0.515255790248 0.010572442013 0.272307057018 15 39 26
0.519027167191 0.010712203027 0.273501717332 15 39 26
0.500709341414 0.010272841214 0.269710166834 17 45 30
0.458046845785 0.009245967236 0.260406153525 19 51 34
0.395228943039 0.007647102225 0.244436519461 18 48 32
0.303188355451 0.005472651446 0.218641730218 16 42 28
0.179041152629 0.001887916285 0.153342087120 13 33 22
0.005817460605 0.000003797245 0.019356344166 6 12 8
0.551677836882 0.029037197741 0.381345559114 24 66 44
0.330279006714 0.012900037665 0.290980656030 18 48 32
0.000399624499 0.000000164234 0.006794452564 4 6 4
0.062074727843 0.000554325703 0.101919072975 7 15 10
0.141358470942 0.002132867859 0.159706199809 14 36 24
0.192596128626 0.003463193431 0.187712290424 16 42 28
0.217723918856 0.004056748072 0.197876007314 16 42 28
0.211161304942 0.003861396091 0.194647386437 19 51 34
0.148085023076 0.002173414138 0.160711870275 21 57 38
0.050580847181 0.000378628589 0.089757674797 8 18 12
0.103147592541 0.002036496868 0.157263658528 19 51 34
0.105612143110 0.002089994343 0.158628845247 17 45 30
0.004452923056 0.000005407686 0.021777312501 7 15 10
0.044331554858 0.000483004284 0.097345852682 12 30 20
0.074046610844 0.001103416106 0.128207539496 14 36 24
0.074268791591 0.001086368345 0.127543841507 16 42 28
0.031669237924 0.000217904678 0.074660227790 9 21 14
0.000724100485 0.000000613403 0.010541822571 4 6 4
0.048746658502 0.000453601462 0.095329052066 7 15 10
0.090149164950 0.001340754799 0.136809706954 11 27 18
0.108639807355 0.001805688026 0.151082686467 15 39 26
0.093917500570 0.001387944971 0.138396319840 17 45 30
0.035095133826 0.000210138141 0.073762464928 9 21 14
0.028107563030 0.000125698036 0.062150308651 11 27 18
0.090126546166 0.001351951361 0.137189481606 19 51 34
0.115205198401 0.001959570133 0.155258027053 18 48 32
0.120887371298 0.002047383200 0.157543384440 14 36 24
0.113526231870 0.001847521598 0.152240534698 15 39 26
0.058822658791 0.000437999138 0.094223278456 6 12 8
0.195764237551 0.006367019655 0.229956587959 20 54 36
0.119450096365 0.003154820621 0.181966740661 18 48 32
0.015595694089 0.000048895915 0.045368872310 4 6 4
0.133237203038 0.001437224001 0.140015230477 7 15 10
0.194706460166 0.003497739645 0.188334385379 11 27 18
0.198427100134 0.003619805950 0.190500252546 10 24 16
0.192310872691 0.003497946977 0.188338106530 10 24 16
0.172180095111 0.003031310227 0.179560409620 13 33 22
0.120831233834 0.001726265288 0.148834280335 10 24 16
0.010893515123 0.000010595829 0.027250769698 6 12 8
0.018939246972 0.000082888901 0.054096095490 5 9 6
0.063306386736 0.000831451970 0.116666503269 8 18 12
0.067352985697 0.000961136219 0.122441537297 8 18 12
0.044917606958 0.000439990636 0.094365867571 7 15 10
0.004539246590 0.000011662741 0.028136323036 4 6 4
0.368809060575 0.016174981214 0.313772627312 29 81 54
0.057402796219 0.000911079264 0.120277902688 10 24 16
0.052736960320 0.000784319147 0.114418978162 9 21 14
0.610284455132 0.034795527223 0.405049654756 22 60 40
0.256965790567 0.009441542017 0.262229433029 19 51 34
0.238857989170 0.006931072704 0.236555986970 13 33 22
0.461703647995 0.019711078483 0.335148480674 13 33 22
0.000191124091 0.000000089466 0.005549058628 4 6 4
0.313897618253 0.012291200435 0.286328927264 18 48 32
0.158623840647 0.004272855715 0.201329092153 9 21 14
0.155840409418 0.004345464227 0.202463086024 20 54 36
0.002900959485 0.000001982197 0.015585333244 4 6 4
0.204767582927 0.006901860154 0.236223179673 24 66 44
0.137559672004 0.003822746171 0.193995778694 18 48 32
0.002058412899 0.000002725129 0.017329904439 4 6 4
0.072953138814 0.000717184311 0.111056518007 8 18 12
0.130489720756 0.002075530824 0.158262074834 9 21 14
0.151341238720 0.002638597912 0.171445015830 8 18 12
0.133375069167 0.002188490686 0.161082623224 8 18 12
0.091080283358 0.001228415338 0.132876710854 7 15 10
0.034122550780 0.000233410682 0.076390737271 5 9 6
0.004742219792 0.000010750464 0.027382694991 4 6 4
0.066613140619 0.000627927479 0.106243806499 6 12 8
0.164941288715 0.002393476392 0.165962579116 9 21 14
0.261539444024 0.004573750234 0.205948171668 11 27 18
0.346245443228 0.006541428886 0.232037405445 15 39 26
0.402034890508 0.007946922320 0.247590198784 18 48 32
0.420799185402 0.008452006959 0.252728221534 20 54 36
0.406565836654 0.008051988444 0.248676553796 16 42 28
0.372830756019 0.007267037210 0.240317973918 16 42 28
0.324085268289 0.006127780576 0.227039555461 13 33 22
0.259654608209 0.004653334421 0.207135823010 14 36 24
0.180869700847 0.002819775405 0.175282529526 12 30 20
0.092607696423 0.001018724722 0.124839707112 11 27 18
0.016414106411 0.000069105616 0.050914119701 7 15 10
0.000207393655 0.000000066523 0.005027173491 4 6 4
0.107339755831 0.001038447912 0.125640222937 11 27 18
0.224812213919 0.003983661682 0.196680487160 17 45 30
0.264753997514 0.005286072346 0.216128228341 18 48 32
0.262296655579 0.005192816383 0.214849714700 17 45 30
0.252517562872 0.004982043658 0.211902608190 16 42 28
0.216105813204 0.003675701059 0.191475782807 16 42 28
0.116320709994 0.001444629428 0.140255299002 8 18 12
0.023662630229 0.000080194822 0.053503546357 6 12 8
0.152193785244 0.004112635720 0.198780543468 22 60 40
0.115193135908 0.002249258122 0.162559950494 16 42 28
0.015878807437 0.000064393734 0.049729603316 6 12 8
0.059381022221 0.000793876974 0.114881878362 10 24 16
0.080173657248 0.001199334130 0.131819762078 9 21 14
0.088219528085 0.001356826718 0.137354192963 11 27 18
0.062048571574 0.000736273117 0.112033208496 13 33 22
0.008137389284 0.000022472782 0.035012200459 5 9 6
0.308081345408 0.011750646037 0.282068360336 24 66 44
0.196397698894 0.006616979350 0.232927296315 14 36 24
0.042831032087 0.000337747883 0.086403500527 9 21 14
0.087222069152 0.001272036891 0.134431288558 10 24 16
0.106787195700 0.001769405372 0.150063903660 12 30 20
0.095433644898 0.001492409388 0.141784835378 9 21 14
0.067179556898 0.000916289635 0.120506752755 13 33 22
0.018667901269 0.000066859202 0.050356343656 8 18 12
0.177811714810 0.002428613884 0.166770776311 13 33 22
0.764823214728 0.047679882959 0.449896056170 32 90 60
0.034552689479 0.000189007263 0.071202179985 8 18 12
0.079552959368 0.001110397779 0.128477374801 9 21 14
0.103695456340 0.001723121052 0.148743862673 12 30 20
0.094480579194 0.001477666315 0.141316405955 10 24 16
0.060569806242 0.000706155232 0.110484287588 7 15 10
0.003260686971 0.000007678369 0.024476920446 4 6 4
0.040057561218 0.000337501857 0.086382515784 8 18 12
0.072403800116 0.001036912094 0.125578253643 9 21 14
0.075108182477 0.001091014841 0.127725421713 7 15 10
0.033074604356 0.000132669366 0.063278670141 6 12 8
0.015164654730 0.000067619658 0.050546541955 10 24 16
0.041991478714 0.000529655983 0.100384136289 13 33 22
0.042456891875 0.000547709834 0.101511981569 12 30 20
0.013142479719 0.000063009213 0.049370608116 6 12 8
0.073894047600 0.000584735320 0.103749712471 12 30 20
0.173571380843 0.002806571269 0.175008503399 16 42 28
0.225673533754 0.004237370498 0.200770209464 16 42 28
0.236713551409 0.004519277662 0.205127301847 24 66 44
0.198758347273 0.003473330449 0.187895261185 21 57 38
0.125334663135 0.001858448941 0.152540091938 16 42 28
0.054202385380 0.000527263039 0.100232732159 13 33 22
0.003827457127 0.000008211562 0.025030856454 5 9 6
0.024986727304 0.000118685797 0.060972412069 6 12 8
0.105543663563 0.001389235764 0.138439209562 10 24 16
0.181784180810 0.003013583751 0.179209714418 16 42 28
0.244436938760 0.004519876481 0.205136361455 20 54 36
0.254228539178 0.004838284457 0.209844500520 23 63 42
0.208086390363 0.003700622830 0.191907552715 18 48 32
0.142845243839 0.002234246448 0.162197498230 15 39 26
0.069964685527 0.000787790113 0.114587514992 12 30 20
0.004799987630 0.000007843260 0.024650893355 4 6 4
0.298306132284 0.012185875392 0.285508715524 19 51 34
0.180895597356 0.005408090060 0.217778547873 15 39 26
0.213456054635 0.007253952144 0.240173647990 27 75 50
0.186730149124 0.005013789377 0.212351738656 14 36 24
0.044948521542 0.000240160656 0.077120128767 10 24 16
0.109181748328 0.001606688968 0.145315206399 11 27 18
0.150528171855 0.002646898493 0.171624606611 16 42 28
0.155389701540 0.002744449140 0.173707613953 20 54 36
0.123218545998 0.001940809901 0.154760975651 17 45 30
0.052472775832 0.000315709975 0.084481813337 12 30 20
0.009687284110 0.000039550135 0.042271706660 5 9 6
0.039692213799 0.000464267039 0.096070431885 11 27 18
0.040823931293 0.000506844472 0.098921804649 13 33 22
0.011376009924 0.000039209713 0.042150074724 9 21 14
0.177279297571 0.005447021107 0.218299870774 17 45 30
0.097514107409 0.002128602776 0.159599674255 12 30 20
0.117721578308 0.003077905446 0.180475761905 26 72 48
0.168170796261 0.003454099660 0.187547845968 24 66 44
0.226671447056 0.007588931415 0.243815139078 35 99 66
0.713999850427 0.043299959754 0.435675317933 25 69 46
0.063917532439 0.001094000622 0.127841831006 9 21 14
0.225294804989 0.007276642848 0.240423812154 16 42 28
0.313735346120 0.003898721747 0.195272553818 10 24 16
0.563368449178 0.030111223357 0.385990479324 22 60 40
0.113002210266 0.001112034114 0.128540453968 8 18 12
0.542786468198 0.030544692514 0.387833850254 31 87 58
0.000309745384 0.000000073101 0.005187700943 4 6 4
0.089084414537 0.000949886807 0.121961964492 12 30 20
0.163985849333 0.002793829877 0.174743264579 20 54 36
0.192478767897 0.003519790365 0.188729327308 16 42 28
0.183188260242 0.003269040428 0.184136785107 12 30 20
0.147544844184 0.002417534908 0.166516795211 7 15 10
0.100909877097 0.001502135055 0.142092161131 6 12 8
0.050054234660 0.000270462498 0.080236038391 6 12 8
0.017477507502 0.000077704695 0.052943934621 10 24 16
0.030575065152 0.000361563853 0.088388438417 14 36 24
0.015861376744 0.000069595017 0.051034027200 11 27 18
0.336751178753 0.013727424196 0.297073202002 14 36 24
0.158269989974 0.002940566308 0.177750481112 14 36 24
0.091245491090 0.001059665243 0.126490144617 8 18 12
0.417720796147 0.019865116416 0.336019254590 24 66 44
0.120946152055 0.003102068321 0.180946802087 10 24 16
0.290074447139 0.012485701993 0.287831362994 35 99 66
0.002097449492 0.000002231681 0.016213539200 4 6 4
0.193469547503 0.006046992694 0.226037384745 21 57 38
0.089534725729 0.001033933601 0.125457898623 12 30 20
0.080828414630 0.001741758707 0.149278222782 14 36 24
0.076880745315 0.001606952365 0.145323146860 14 36 24
0.009404817658 0.000021932237 0.034729199300 6 12 8
0.104310571269 0.002299521131 0.163761922254 9 21 14
0.001799334858 0.000001443693 0.014022497938 6 12 8
0.080897656043 0.000881955342 0.118982381551 18 48 32
0.154104295348 0.002529489071 0.169048528603 20 54 36
0.195040438626 0.003574534936 0.189702756386 18 48 32
0.203176008667 0.003798165286 0.193579076039 20 54 36
0.168727222257 0.002893500946 0.176797045095 14 36 24
0.108917770931 0.001592788125 0.144894909841 12 30 20
0.034752474737 0.000202702247 0.072881949426 8 18 12
0.214274828824 0.007418034816 0.241971053322 16 42 28
0.257319413998 0.010754910751 0.273864703581 35 99 66
0.115392936262 0.002885239730 0.176628627340 12 30 20
0.155642473304 0.004509029522 0.204972132186 15 39 26
0.234233468552 0.008734151094 0.255509680813 27 75 50
0.256973237430 0.009803273275 0.265536460686 15 39 26
0.290149848663 0.011521266230 0.280220904135 25 69 46
0.210770051145 0.006707042382 0.233979320885 25 69 46
0.085580879156 0.001039988829 0.125702336631 12 30 20
0.090302245429 0.002125006771 0.159509749112 19 51 34
0.233754064401 0.008992233533 0.258001947957 26 72 48
