0.079005814318 0.001665354431 0.147062750684 10 24 16
0.452355068022 0.022435269501 0.349927082737 15 38 25
0.081879007106 0.001657099631 0.146819362083 8 16 10
0.116237701787 0.002969277269 0.178327112341 12 30 20
0.211685879877 0.007517343908 0.243046067704 13 31 20
0.068343735666 0.001356364360 0.137338589415 11 27 18
0.216693887835 0.007410624435 0.241890452678 14 35 23
0.124576265437 0.003474545200 0.187917163243 16 39 25
0.140981337563 0.004170987935 0.199716265745 16 37 23
0.132275674729 0.003951123562 0.196143534204 18 44 28
0.127135828091 0.003492916248 0.188247774253 15 37 24
0.111573868507 0.002931278126 0.177563133955 14 32 20
0.096618549438 0.002241597729 0.162375194831 11 27 18
0.275959485337 0.011325612280 0.278625603739 18 46 30
0.121635221271 0.003277831553 0.184301697980 13 33 22
0.149464542051 0.004241866108 0.200841186304 12 29 19
0.156528886311 0.004702233268 0.207858847909 14 35 23
0.202757843587 0.006431920912 0.230735290696 11 26 17
0.282344211532 0.011497129358 0.280025081188 14 34 22
0.119588647238 0.002980297915 0.178547463780 9 21 14
0.362393336026 0.015813300466 0.311416271145 15 37 24
0.089161233271 0.002031358110 0.157131270976 14 32 20
0.042736840094 0.000579093584 0.103414962089 6 12 8
0.054585913715 0.000957268047 0.122277057756 10 24 16
0.099602777470 0.002392882199 0.165948844295 11 26 17
0.045844974449 0.000730301080 0.111729478951 10 22 14
0.064093630104 0.001203484904 0.131971658595 10 23 15
0.222605570744 0.007769581744 0.245734616336 15 37 24
0.192506593913 0.006014267726 0.225628892421 11 25 16
0.122891850681 0.003437357835 0.187244343835 14 35 23
0.176822269892 0.006158837065 0.227422465879 22 51 31
0.048872877395 0.000775149547 0.113971332273 8 18 12
0.168924147766 0.005483395864 0.218784722607 16 38 24
0.180783174509 0.005074875408 0.213210663041 8 18 12
0.545110225663 0.030280404689 0.386712031569 19 49 32
0.111808972880 0.002599083268 0.170584875826 8 18 12
0.698296132216 0.045535688065 0.443048319581 22 56 36
0.488534170289 0.025289635508 0.364178790526 14 36 24
0.320419912149 0.013139060193 0.292766845499 14 35 23
0.161070855953 0.005069434077 0.213134433591 17 42 27
0.229729503114 0.007744514692 0.245470059890 11 25 16
0.046503457257 0.000689750193 0.109622003743 7 15 10
0.056536507874 0.000968921167 0.122771230038 9 19 12
0.108558707741 0.002602073548 0.170650270818 10 23 15
0.162146766218 0.005061716721 0.213026224963 16 38 24
0.070082322158 0.001386431316 0.138345991120 12 28 18
0.307217478852 0.012728032069 0.289681579298 14 34 22
0.211139069224 0.007401287973 0.241788826061 13 31 20
0.084472497183 0.001874283540 0.152972097986 12 29 19
0.095379132927 0.002252150339 0.162629596765 12 28 18
0.056979915668 0.001023225117 0.125023270830 9 20 13
0.048666878641 0.000741642139 0.112304870631 7 15 10
0.309457071347 0.012134344224 0.285105697426 10 23 15
0.104153239644 0.002416977841 0.166504004191 9 20 13
0.160904069557 0.005207110062 0.215046664954 16 42 28
0.136581588025 0.003697080760 0.191846304725 10 23 15
0.137794544376 0.003675186370 0.191466845277 11 27 18
0.066366221325 0.001313279475 0.135868728593 11 27 18
0.148002591257 0.004179730983 0.199855713933 13 31 20
0.103096193407 0.002442111647 0.167079165527 10 23 15
0.083157753050 0.001811431794 0.151242711430 11 26 17
0.064335012161 0.001229292082 0.132908315596 12 30 20
0.133070537722 0.003386381575 0.186314114485 8 18 12
0.159131800286 0.004401411198 0.203328273935 12 29 19
0.060295722659 0.001157809148 0.130280510454 11 25 16
0.057694803369 0.000951316695 0.122023131278 7 15 10
0.076072382433 0.001586900995 0.144716173289 12 26 16
0.050480860768 0.000854314564 0.117726182831 9 21 14
0.092975335097 0.001908030452 0.153884741670 8 18 12
0.168270337368 0.005169968998 0.214534152424 11 25 16
0.090284560988 0.002027239300 0.157024998590 11 24 15
0.053869434009 0.000910383809 0.120247290947 9 20 13
0.123562833029 0.003146029276 0.181797558225 9 21 14
0.407514140686 0.019203557948 0.332246967704 17 45 30
0.221034038516 0.008139588982 0.249575117536 15 38 25
0.234811923986 0.008533595984 0.253538831900 16 40 26
0.177346856529 0.005893390325 0.224107054625 19 45 28
0.117681585804 0.003183611052 0.182518599261 15 36 23
0.087985167609 0.001929511549 0.154460079247 12 27 17
0.027762356233 0.000326465795 0.085430514311 8 16 10
0.052951760013 0.000877210735 0.118768636803 9 20 13
0.197785070753 0.005843470588 0.223472496166 8 18 12
0.039919875175 0.000581798983 0.103575756005 9 20 13
0.083388717017 0.001774145109 0.150197777127 10 22 14
0.083557454193 0.001874939262 0.152989935090 11 24 15
0.168801542191 0.005331522209 0.216745887893 14 35 23
0.037327520797 0.000538533571 0.100941879409 9 19 12
0.035065387826 0.000480990776 0.097210395152 9 20 13
0.076458899954 0.001589132533 0.144783975978 10 23 15
0.085076012636 0.001872126317 0.152913387261 12 29 19
0.114783662833 0.002896416372 0.176856404048 11 26 17
0.117094884263 0.002947420326 0.177888477157 11 26 17
0.111567954266 0.002569041724 0.169925091252 9 21 14
0.109946637629 0.002847347238 0.175851983108 13 31 20
0.183422689361 0.006204293466 0.227980605728 17 42 27
0.304132704696 0.013494239317 0.295381479802 19 50 33
0.213914304704 0.007077600858 0.238211367097 12 30 20
0.053668505369 0.000917828097 0.120574159178 11 27 18
0.050530899176 0.000889643384 0.119327106676 12 28 18
0.239914626100 0.008707201045 0.255246610292 15 38 25
0.122701057688 0.002905958486 0.177050406337 8 17 11
0.069017219722 0.001449991962 0.140428629505 12 28 18
0.419560105523 0.019214706198 0.332311248423 14 35 23
0.261486638776 0.009570860297 0.263421237045 13 31 20
0.251254026049 0.009477306136 0.262560120102 14 34 22
0.159203399488 0.004671339807 0.207402639600 10 22 14
0.054331836564 0.000981671221 0.123307401455 12 29 19
0.076009933916 0.001614190058 0.145540997994 14 34 22
0.067341546213 0.001239354472 0.133269971653 8 18 12
0.136802888310 0.003917004056 0.195577309029 13 32 21
0.065974901649 0.001171162722 0.130779459877 8 18 12
0.086860328701 0.001971359515 0.155568764877 12 29 19
0.138969186083 0.004134302068 0.199129006728 16 39 25
0.041210387144 0.000553922553 0.101894359083 6 12 8
0.147903434994 0.003909776563 0.195456944598 10 24 16
0.085523480003 0.001835057472 0.151897403208 11 26 17
0.114229815569 0.003046405233 0.179857968384 12 29 19
0.030438350800 0.000382287848 0.090045902833 9 17 10
0.084945840515 0.001877126343 0.153049398587 12 28 18
0.019754358250 0.000189160134 0.071221371134 7 14 9
0.184031654347 0.006302892563 0.229181958988 17 40 25
0.101948801102 0.002459467553 0.167474037950 11 25 16
0.056448479098 0.001014748397 0.124677068946 10 24 16
0.326389034741 0.014465774415 0.302306641619 19 48 31
0.187563068908 0.005744731671 0.222206644879 11 25 16
0.228922945487 0.007447343003 0.242289305336 13 32 21
0.037550587160 0.000513763312 0.099369892940 7 15 10
0.200820770445 0.006433489513 0.230754046214 10 24 16
0.137458851043 0.003744193965 0.192657789145 15 39 26
0.101829849808 0.002455691188 0.167388278610 12 29 19
0.059727626696 0.001136154501 0.129463176000 11 25 16
0.101175976318 0.002218662110 0.161819497458 9 21 14
0.058878785954 0.001079257719 0.127264960519 11 25 16
0.021613044832 0.000206058169 0.073281959147 6 12 8
0.129673896219 0.003120593768 0.181306290125 7 15 10
0.052827161852 0.000917512423 0.120560334321 10 22 14
0.174774107870 0.005454858494 0.218404520063 15 36 23
0.143620085497 0.003992355173 0.196823454259 9 21 14
0.270867722710 0.010103632875 0.268221124134 15 39 26
0.189821901082 0.005796458305 0.222871583115 10 22 14
0.093729563613 0.001987685676 0.155997041473 9 21 14
0.223243585728 0.008612575392 0.254318608159 19 46 29
0.074866063685 0.001414831391 0.139284253695 7 15 10
0.091369542299 0.002111491044 0.159170851808 13 30 19
0.044220130724 0.000681121032 0.109162939813 9 19 12
0.373815185093 0.016632262059 0.316702067791 18 48 32
0.109628383068 0.002812101620 0.175123379432 12 29 19
0.048492656599 0.000820542161 0.116153979309 12 29 19
0.257358134050 0.009930547120 0.266680658021 15 35 22
0.119610677093 0.003172679153 0.182309448603 13 30 19
0.180555391884 0.005460004912 0.218473183472 9 21 14
0.027112829813 0.000316160546 0.084521984147 8 18 12
0.027863511530 0.000322021699 0.085041093913 8 16 10
0.195791892477 0.006291081362 0.229038712225 12 29 19
0.155545726057 0.004747229442 0.208519752149 15 37 24
0.025467942923 0.000260418010 0.079230208372 7 13 8
0.046211783310 0.000744450936 0.112446468186 10 24 16
0.107565145223 0.002519039579 0.168815423638 9 21 14
0.113068107586 0.002811153104 0.175103687643 12 29 19
0.040713779053 0.000617833058 0.105671411041 10 24 16
0.077823330387 0.001522194546 0.142721865288 9 19 12
0.339818720976 0.015301085814 0.308016898017 19 50 33
0.084435757307 0.001873039314 0.152938240771 13 31 20
0.085934539015 0.001919380700 0.154189275252 10 23 15
0.073243253998 0.001342342377 0.136863684104 6 12 8
0.213939034613 0.007299218463 0.240672191895 13 33 22
0.056183411240 0.000979883023 0.123232484299 10 21 13
0.145104244011 0.003979729483 0.196615752625 12 30 20
0.104173620321 0.002462398421 0.167540536017 10 24 16
0.101325219501 0.002406257833 0.166257474615 10 22 14
0.066410496064 0.001223460945 0.132697832568 9 19 12
0.155407622862 0.003624774305 0.190587369574 8 17 11
0.136097055218 0.003523016854 0.188786977245 9 21 14
0.075542292332 0.001620503705 0.145730504612 12 30 20
0.065363410203 0.001261908338 0.134073535734 11 27 18
0.064345961231 0.001253199404 0.133764391778 13 30 19
0.113438093291 0.002638478921 0.171442438612 8 17 11
0.063568944547 0.001162561604 0.130458521122 8 18 12
0.041353458817 0.000599551456 0.104618690564 8 18 12
0.072039238637 0.001512115419 0.142406159160 12 29 19
0.037430610181 0.000535794245 0.100770436753 9 19 12
0.030818918104 0.000384117643 0.090189340466 8 16 10
0.093426587874 0.002106608325 0.159048065538 11 27 18
0.050963897227 0.000772601369 0.113846307804 6 12 8
0.061620494148 0.001055831725 0.126337427173 8 18 12
0.084456920307 0.001867089700 0.152776135505 11 26 17
0.101592693748 0.002449866979 0.167255841203 13 32 21
0.098848734316 0.002395899529 0.166018566639 14 36 24
0.075269324579 0.001405115743 0.138964699432 7 15 10
0.160968119555 0.005042086169 0.212750479247 16 38 24
0.047575599079 0.000735373494 0.111987560233 8 17 11
0.101406437781 0.002242406815 0.162394728480 8 18 12
0.138395611744 0.003615077602 0.190417269837 8 18 12
0.069749540259 0.001305005732 0.135582800124 8 18 12
0.207113793909 0.007596116579 0.243892062479 20 50 32
0.050827702184 0.000787451639 0.114571101834 7 15 10
0.036760234529 0.000511427854 0.099219092747 9 19 12
0.086259068843 0.001711442254 0.148407053486 8 18 12
0.037821952900 0.000553632277 0.101876557126 10 24 16
0.103845415214 0.002637569177 0.171422731981 14 34 22
0.051778023429 0.000917405922 0.120555669429 11 26 17
0.107535891862 0.002482237072 0.167989270857 8 18 12
0.027952349694 0.000311679270 0.084120742774 6 12 8
0.154412354828 0.004757194650 0.208665555818 15 37 24
0.158468233007 0.004836185799 0.209814155367 12 27 17
0.156172266409 0.004701313109 0.207845288702 11 26 17
0.124268071235 0.002789385859 0.174650563367 9 21 14
0.094203785939 0.002143645760 0.159974759401 12 26 16
0.252931566860 0.009702189381 0.264620635703 16 38 24
0.063604913225 0.001146038293 0.129837507278 8 18 12
0.085413454253 0.001917956865 0.154151138904 12 30 20
0.063421465801 0.001219915525 0.132569528601 12 29 19
0.035189665694 0.000401618559 0.091538765345 6 11 7
0.084158138640 0.001878749086 0.153093488738 12 28 18
0.035454153444 0.000486286565 0.097565861302 9 20 13
0.078506731150 0.001598090553 0.145055517904 9 20 13
0.133028420062 0.003895213010 0.195213956345 15 37 24
0.051036894547 0.000859171687 0.117948868287 9 19 12
0.063629147894 0.001192669265 0.131575128197 11 24 15
0.080875767499 0.001658016091 0.146846423274 10 23 15
0.072214947414 0.001370881605 0.137826832548 8 18 12
0.134384134508 0.003920007908 0.195627290688 16 37 23
0.029550561009 0.000331895727 0.085901552518 6 12 8
0.037255406315 0.000533469188 0.100624462334 9 19 12
0.065139276420 0.001285353562 0.134898771431 11 26 17
0.075326725465 0.001550719951 0.143607873278 12 28 18
0.085782726566 0.001967804819 0.155475202987 12 27 17
0.160782631041 0.004647545824 0.207049897301 11 27 18
0.106662431898 0.002545400374 0.169402244569 10 24 16
0.012770506609 0.000101696042 0.057911988309 7 15 10
0.122972688324 0.003214116376 0.183099710829 11 26 17
0.030803460831 0.000405375089 0.091823282021 9 20 13
0.131681600154 0.003797832153 0.193573416325 16 39 25
0.044703942017 0.000705241324 0.110436603991 9 20 13
0.109953469169 0.002742037130 0.173656710310 11 26 17
0.125161603367 0.003318223199 0.185055639393 11 26 17
0.122963496448 0.003133757632 0.181560872367 10 23 15
0.028486132070 0.000323024770 0.085129301077 6 12 8
0.280877883766 0.011385264489 0.279113922814 14 35 23
0.053465359145 0.000851882120 0.117614344803 7 14 9
0.228318757261 0.008312461662 0.251329621769 14 36 24
0.049984941131 0.000830945490 0.116642809309 9 20 13
0.139766558804 0.003859229047 0.194610967110 11 26 17
0.116809154149 0.002906722907 0.177065929523 11 27 18
0.081077491715 0.001609207412 0.145391092722 10 23 15
0.075103790185 0.001586330355 0.144698824871 12 30 20
0.049150975462 0.000833308604 0.116753277584 11 26 17
0.054262431766 0.000934507809 0.121300177834 10 23 15
0.075946662924 0.001571843967 0.144257013449 10 23 15
0.117981843244 0.003237361561 0.183540056535 13 32 21
0.043888444863 0.000656340964 0.107822723134 8 17 11
0.034849388878 0.000406679543 0.091921669113 6 12 8
0.063229561245 0.001224016908 0.132717929662 12 28 18
0.149068767231 0.004241548280 0.200836170065 11 26 17
0.185651802858 0.005785843601 0.222735456223 10 23 15
0.177652188560 0.005986235089 0.225277792589 15 36 23
0.269901774841 0.010790475874 0.274166250019 16 40 26
0.093518219210 0.002258254242 0.162776386825 13 32 21
0.063656929027 0.001242329906 0.133376537633 11 25 16
0.083672139535 0.001828321127 0.151711307683 12 28 18
