0.127171203950 0.002952359098 0.177987779858 14 36 24
0.317837873020 0.012326503274 0.286602796957 15 39 26
0.156205562427 0.004024236551 0.197345984050 12 30 20
0.090021587868 0.001889305018 0.153379676898 13 33 22
0.114054025811 0.002114680355 0.159250951616 10 24 16
0.123128602566 0.002849967285 0.175905904559 13 33 22
0.172042145597 0.004166899528 0.199650990370 11 27 18
0.116786925471 0.002387156745 0.165816383208 16 42 28
0.141331102337 0.003866137895 0.194727029669 18 48 32
0.100486744030 0.001926618063 0.154382831444 9 21 14
0.131455321631 0.003263647287 0.184035468693 17 45 30
0.099962592841 0.001975669703 0.155682061075 14 36 24
0.137547160954 0.003350179802 0.185647810336 16 42 28
0.136499384730 0.003375533547 0.186114953749 12 30 20
0.126048593869 0.003039856548 0.179728999102 16 42 28
0.175413849284 0.004422718071 0.203655844452 13 33 22
0.114575323920 0.002349693519 0.164944383582 10 24 16
0.182150982892 0.004910061574 0.210877108827 11 27 18
0.215274786948 0.006580395573 0.232497235379 14 36 24
0.166644517959 0.004066501645 0.198034463735 11 27 18
0.221038574326 0.007208586065 0.239671920114 16 42 28
0.103887479887 0.002157034494 0.160307123975 13 33 22
0.131962259806 0.003210221154 0.183025714100 9 21 14
0.099328773364 0.002026738642 0.157012070951 13 33 22
0.109787564515 0.001956127371 0.155167049655 6 12 8
0.083415006762 0.001294972424 0.135234437624 15 39 26
0.110336460411 0.002424017496 0.166665499905 11 27 18
0.148071687156 0.003082644966 0.180568349745 11 27 18
0.228492048413 0.007865552324 0.246742257600 19 51 34
0.144424079203 0.004006641293 0.197057943771 15 39 26
0.156747959235 0.004635106837 0.206865011750 20 54 36
0.104209324955 0.001909651366 0.153928305494 9 21 14
0.131636590553 0.003259512625 0.183957718664 14 36 24
0.183443140835 0.005071969579 0.213169961076 10 24 16
0.280114302823 0.010644065628 0.272920593544 14 36 24
0.175420245921 0.004364150103 0.202752874034 10 24 16
0.252192492096 0.008264242101 0.250842701695 14 36 24
0.205132896564 0.005825368382 0.223241495911 11 27 18
0.284049315838 0.010584625030 0.272411613368 15 39 26
0.122816421350 0.002961057874 0.178162415079 17 45 30
0.150224903267 0.003512907166 0.188606222514 11 27 18
0.129660079275 0.003117883533 0.181253786771 10 24 16
0.157287615207 0.004310506977 0.201918716364 15 39 26
0.164172362271 0.004575276296 0.205971074442 14 36 24
0.150780574255 0.004307676099 0.201874504065 17 45 30
0.152195916627 0.003873529168 0.194851043567 17 45 30
0.159249582382 0.004224942595 0.200573735726 15 39 26
0.187537706704 0.005713561455 0.221804027058 21 57 38
0.135724452605 0.003099229607 0.180891590211 11 27 18
0.129776644993 0.003160943943 0.182084393500 12 30 20
0.079046967402 0.001210907758 0.132242427599 11 27 18
0.211403322538 0.007188758543 0.239451975744 20 54 36
0.183701307466 0.005282619155 0.216081155282 10 24 16
0.216326062091 0.006597318603 0.232696371821 14 36 24
0.135739860653 0.003179976576 0.182449117157 13 33 22
0.129097096241 0.002750838663 0.173842315978 11 27 18
0.145496083917 0.002883243153 0.176587875780 10 24 16
0.137106775988 0.003435187402 0.187204925295 15 39 26
0.171575118910 0.005080909701 0.213295135776 15 39 26
0.111350849729 0.002535455713 0.169181343288 10 24 16
0.103473739781 0.002319471831 0.164234159942 12 30 20
0.094836829387 0.001885422141 0.153274530145 12 30 20
0.160322925689 0.003907796247 0.195423939132 9 21 14
0.139133363915 0.003234636791 0.183488549086 13 33 22
0.080110359977 0.001306005667 0.135617420499 14 36 24
0.162669299561 0.004573834699 0.205949439435 15 39 26
0.139684397399 0.003560925065 0.189461688784 16 42 28
0.153353941228 0.003783925443 0.193336854897 14 36 24
0.121276697666 0.002484325498 0.168036370129 9 21 14
0.207688821785 0.005786033955 0.222737898866 13 33 22
0.087961194242 0.001778162458 0.150311060243 12 30 20
0.170623940661 0.004484614772 0.204601512690 16 42 28
0.142322470367 0.003564142851 0.189518739841 13 33 22
0.241136415814 0.007858153681 0.246664868219 12 30 20
0.163966744843 0.003898605945 0.195270620430 12 30 20
0.186314719939 0.005633792413 0.220766957650 19 51 34
0.162568239866 0.004709698856 0.207968793400 21 57 38
0.190795750745 0.005638082015 0.220822974518 17 45 30
0.147719849371 0.003762336792 0.192968468069 12 30 20
0.108067397142 0.002150443432 0.160143678558 9 21 14
0.129617938956 0.003169360749 0.182245865396 13 33 22
0.312123067163 0.011669984411 0.281421463930 16 42 28
0.144962465998 0.003667629899 0.191335531620 18 48 32
0.140371343485 0.003234330733 0.183482761737 9 21 14
0.080529961045 0.001225233951 0.132761902332 8 18 12
0.146526656318 0.003741954090 0.192619363829 16 42 28
0.147379064178 0.003978847524 0.196601227362 19 51 34
0.136461673111 0.003107175396 0.181046047925 13 33 22
0.133089534426 0.003393455957 0.186443765217 14 36 24
0.150658597614 0.003816279959 0.193886335054 11 27 18
0.163416699832 0.003946914708 0.196073863497 11 27 18
0.158313792241 0.004273301345 0.201336090992 12 30 20
0.195692326688 0.004658715073 0.207215629335 8 18 12
0.124984556799 0.002906192793 0.177055164728 13 33 22
0.173831427594 0.005497237207 0.218968655456 20 54 36
0.161584919922 0.003414119141 0.186821426283 12 30 20
0.167603918183 0.003832371874 0.194158469828 9 21 14
0.076194994655 0.001404952925 0.138959331729 11 27 18
0.068256168123 0.001118070233 0.128772606884 11 27 18
0.132985717827 0.003303673414 0.184784765028 12 30 20
0.105055077818 0.001645610429 0.146479259651 7 15 10
0.137291510946 0.003177007139 0.182392309627 12 30 20
0.152602854440 0.003929049618 0.195777583504 10 24 16
0.147141363544 0.003544367267 0.189167575762 12 30 20
0.258931231316 0.009458157031 0.262383164711 15 39 26
0.174858574805 0.005148086875 0.214231049284 11 27 18
0.169973116933 0.005184201157 0.214730832299 23 63 42
0.113171698478 0.002646719287 0.171620733297 14 36 24
0.082820758560 0.001443555563 0.140220537475 9 21 14
0.184808499522 0.005696513652 0.221583205158 15 39 26
0.116866197312 0.002503560542 0.168468933014 8 18 12
0.123585465505 0.002977258293 0.178486742631 18 48 32
0.128449418198 0.003415463434 0.186845943073 16 42 28
0.043011341874 0.000386441909 0.090370884315 5 9 6
0.331202451764 0.011313042062 0.278522484047 16 42 28
0.087525093294 0.001517854811 0.142586104147 9 21 14
0.158438829152 0.004019739680 0.197272448761 15 39 26
0.132432365078 0.003044609320 0.179822618226 15 39 26
0.147280320810 0.004032267696 0.197477177545 15 39 26
0.100728087800 0.002029198739 0.157075573407 12 30 20
0.154882093450 0.004044832741 0.197682085955 17 45 30
0.201647278770 0.006527811493 0.231876281646 17 45 30
0.124467995372 0.002849513061 0.175896558851 12 30 20
0.212861572468 0.006189318984 0.227797042437 18 48 32
0.269978101838 0.009877728719 0.266207011987 15 39 26
0.202861692302 0.006077775866 0.226420295397 13 33 22
0.111938433754 0.002029963284 0.157095298152 7 15 10
0.149661526342 0.003638364701 0.190825262771 11 27 18
0.188158898205 0.005939775948 0.224693485088 16 42 28
0.122998590983 0.002736774921 0.173545551697 16 42 28
0.117561435908 0.002879251076 0.176506338195 19 51 34
0.196929924346 0.005868961121 0.223796970572 14 36 24
0.114861846345 0.002672047330 0.172166443461 11 27 18
0.174068027828 0.004542101518 0.205472042521 14 36 24
0.162892218354 0.003118082848 0.181257648980 8 18 12
0.126355099062 0.002999085764 0.178921866898 14 36 24
0.140431800687 0.003701248269 0.191918363482 18 48 32
0.190079883352 0.005682581439 0.221402412442 15 39 26
0.159096590695 0.003949006560 0.196108496884 14 36 24
0.199211171230 0.005864784875 0.223743874698 9 21 14
0.163914193201 0.004743205978 0.208460825933 13 33 22
0.153384932281 0.004625218749 0.206717805092 18 48 32
0.161240710005 0.003541771842 0.189121390721 8 18 12
0.177378838750 0.005526007918 0.219349993996 17 45 30
0.094845251891 0.002098026096 0.158831786656 15 39 26
0.206610622032 0.005304397025 0.216377683411 13 33 22
0.149549998488 0.003976892981 0.196569029727 18 48 32
0.110622215347 0.002404097479 0.166207704021 15 39 26
0.138600636905 0.003121026741 0.181314674981 10 24 16
0.169016682325 0.004996829196 0.212112026918 19 51 34
0.156534843294 0.003696332898 0.191833368021 10 24 16
0.099183212236 0.001749195835 0.149490388581 12 30 20
0.073871344070 0.001015388862 0.124703293670 10 24 16
0.177689626618 0.005005895278 0.212240232431 17 45 30
0.132529653856 0.003229526826 0.183391875243 17 45 30
0.193888810414 0.005596904165 0.220284065329 13 33 22
0.130632417345 0.003164247472 0.182147804052 15 39 26
0.270681048907 0.009042998148 0.258486543910 14 36 24
0.181212496214 0.005524175662 0.219325748051 14 36 24
0.098459144691 0.002099784268 0.158876141928 12 30 20
0.123312850608 0.002586832879 0.170316444917 13 33 22
0.091344466306 0.001920149399 0.154209856421 11 27 18
0.145058880505 0.003979497516 0.196611932490 15 39 26
0.194174446604 0.006159582064 0.227431635497 17 45 30
0.085687319579 0.001485957096 0.141580209059 6 12 8
0.167315175678 0.004224511232 0.200566909352 10 24 16
0.104200913878 0.002390817708 0.165901105706 15 39 26
0.156174062734 0.004087603940 0.198376426283 11 27 18
0.174965132682 0.004755708885 0.208643830115 14 36 24
0.099636640473 0.001437406128 0.140021144519 7 15 10
0.115041645109 0.002334016593 0.164576733769 11 27 18
0.081456509003 0.001256452395 0.133880031358 5 9 6
0.130320129397 0.003046975134 0.179869183224 11 27 18
0.096423321434 0.001823382723 0.151574590764 11 27 18
0.143993237477 0.003751989002 0.192791394546 17 45 30
0.129859361326 0.003152833546 0.181928528494 14 36 24
0.121686400427 0.002397456117 0.166054512305 8 18 12
0.167237454588 0.004120280034 0.198903627585 11 27 18
0.082547245709 0.001425651281 0.139638410111 8 18 12
0.109460113393 0.002416785974 0.166499598220 16 42 28
0.088065280051 0.001828724762 0.151722471218 15 39 26
0.122648229933 0.002891487451 0.176756026425 17 45 30
0.246651887909 0.008722392207 0.255394964116 16 42 28
0.110748071344 0.001949754850 0.154998369280 5 9 6
0.162337887865 0.004501243296 0.204854081738 13 33 22
0.167489215275 0.005246767353 0.215591215839 18 48 32
0.126240730861 0.003145232662 0.181782212468 11 27 18
0.177787637749 0.005507563981 0.219105683397 15 39 26
0.080938123238 0.001320825510 0.136128463285 7 15 10
0.161613617396 0.004716034145 0.208062001917 16 42 28
0.138738702610 0.003353177796 0.185703171065 14 36 24
0.150808500843 0.003739193953 0.192571992267 13 33 22
0.205882704264 0.005850368465 0.223560393684 9 21 14
0.108372583491 0.002085718238 0.158520587116 10 24 16
0.132239964553 0.003567245100 0.189573709936 16 42 28
0.130723303236 0.003115207147 0.181201909279 12 30 20
0.092903849004 0.001943744949 0.154838950315 12 30 20
0.112712028320 0.001720831664 0.148677958382 5 9 6
0.082088252234 0.001651209180 0.146645190507 11 27 18
0.115301546280 0.002494932161 0.168275170650 14 36 24
0.143287742749 0.003595182853 0.190067321187 16 42 28
0.164376721836 0.004175120133 0.199782196947 10 24 16
0.118430459573 0.002551251999 0.169531958257 15 39 26
0.143400883455 0.003856510376 0.194565257862 18 48 32
0.162258452291 0.004011783985 0.197142218425 11 27 18
0.200773645402 0.005696802745 0.221586953486 11 27 18
0.225216633345 0.006833163114 0.235436822883 13 33 22
0.150296792310 0.003887859760 0.195091039555 16 42 28
0.204733127443 0.006510539781 0.231671596516 19 51 34
0.215267585938 0.005802031140 0.222942984691 14 36 24
0.198601616810 0.006192006604 0.227830010153 17 45 30
0.100561659062 0.002191579519 0.161158371529 11 27 18
0.176131890512 0.004886313540 0.210536582730 11 27 18
0.201798305382 0.006856971410 0.235709944416 15 39 26
0.083193045597 0.001486694504 0.141603624985 11 27 18
0.127418597845 0.002744509396 0.173708885224 13 33 22
0.145128251580 0.003961089333 0.196308304256 15 39 26
0.125200195137 0.002557027830 0.169659797446 13 33 22
0.090260693895 0.001159387062 0.130339667593 7 15 10
0.131186225417 0.003009838928 0.179135452125 9 21 14
0.117557822238 0.002497949687 0.168342984145 11 27 18
0.131212697359 0.003382658085 0.186245802327 16 42 28
0.082306348680 0.001288957709 0.135024739692 5 9 6
0.136921058218 0.003650363768 0.191034808611 13 33 22
0.153623955272 0.003660318304 0.191208301542 13 33 22
0.129949344321 0.002669133127 0.172103830984 11 27 18
0.120138211317 0.002799684306 0.174865236723 19 51 34
0.270314044676 0.007091468464 0.238366846623 15 39 26
0.091025789559 0.001152286167 0.130073025479 8 18 12
0.100850942519 0.001976950940 0.155715707475 9 21 14
0.121083584601 0.003181906800 0.182486024810 13 33 22
0.114285790228 0.002491444335 0.168196719877 14 36 24
0.143694008121 0.003768472926 0.193073317549 16 42 28
0.113504906344 0.002323625720 0.164332142545 12 30 20
0.117560240695 0.002583033307 0.170233016432 9 21 14
0.184514131470 0.005135378606 0.214054624583 17 45 30
0.215436134502 0.005737494200 0.222113290350 13 33 22
0.118188086419 0.002267328651 0.162994125124 9 21 14
0.167721177320 0.004529252078 0.205278101876 12 30 20
0.148537556460 0.003976793623 0.196567392691 16 42 28
0.249363592690 0.008972349537 0.257811639449 17 45 30
0.204319088827 0.006632690773 0.233111505576 18 48 32
0.147978053885 0.003816504814 0.193890142900 15 39 26
0.191601583037 0.005231363777 0.215380029878 13 33 22
0.112138083432 0.002225020455 0.161973933292 7 15 10
0.103742130191 0.002228636480 0.162061630597 12 30 20
0.134653879933 0.003692153703 0.191761043056 19 51 34
0.125860057942 0.003312746968 0.184953781129 14 36 24
0.168290432549 0.004524930581 0.205212793745 13 33 22
0.151326337027 0.003832740601 0.194164696530 13 33 22
0.062477025024 0.000923449184 0.120819803890 8 18 12
0.113975000999 0.001656228138 0.146793619420 7 15 10
0.114491427472 0.002678304500 0.172300726863 17 45 30
0.138679497932 0.003415359073 0.186844040003 11 27 18
0.165516896520 0.003527196746 0.188861609993 11 27 18
0.176546470355 0.005557599528 0.219767200295 18 48 32
0.185086071791 0.005560177722 0.219801178682 13 33 22
0.140067128450 0.003737820041 0.192548403466 14 36 24
0.102484459970 0.002040438088 0.157365043629 10 24 16
0.076992436974 0.001122650639 0.128948215170 12 30 20
