0.326386828001 0.004797530290 0.209253646264 5 9 6
0.376609063332 0.007884285611 0.246937989934 7 15 10
0.294930285913 0.003817714790 0.193910630900 5 9 6
0.266984262865 0.003801255902 0.193631567725 6 12 8
0.241221777532 0.001379119607 0.138102361070 6 12 8
0.183836635570 0.001989067191 0.156033174342 6 12 8
0.229904991181 0.002600287653 0.170611220779 6 12 8
0.244180443419 0.003258077935 0.183930724741 6 12 8
0.339797221808 0.006253563705 0.228582503727 7 15 10
0.308673793348 0.003640803067 0.190867882458 5 9 6
0.240065693823 0.001734798122 0.149079103925 5 9 6
0.202866646767 0.001848659463 0.152271782606 5 9 6
0.183633895808 0.000804968993 0.115414447388 5 9 6
0.186250475850 0.001572322084 0.144271638451 5 9 6
0.201333921970 0.001963166503 0.155352949923 6 11 7
0.303690480022 0.005117942742 0.213812093993 6 12 8
0.297136876875 0.004412364222 0.203496796750 6 12 8
0.333506834788 0.005925816874 0.224517329548 7 15 10
0.281185255224 0.004039241020 0.197590949695 6 12 8
0.239264257529 0.003293868530 0.184601777959 6 12 8
0.256714080462 0.003610634028 0.190339218928 6 12 8
0.155414989745 0.000844136592 0.117256799167 5 9 6
0.325047848437 0.005395134445 0.217604505462 6 12 8
0.177533582639 0.001727664127 0.148874470931 6 12 8
0.187978013412 0.001556902923 0.143798482808 5 9 6
0.155896721387 0.000899625529 0.119771746623 5 9 6
0.176849423158 0.001399291379 0.138772425402 5 9 6
0.245111573594 0.003068731071 0.180296267523 6 12 8
0.326439739986 0.006004106715 0.225501755309 6 12 8
0.467365128676 0.013582711656 0.296025611095 8 18 12
0.238099319925 0.003386341653 0.186313382326 7 15 10
0.197043776352 0.001490164400 0.141713705440 5 9 6
0.220144606223 0.001895876878 0.153557312459 5 9 6
0.459593249657 0.011383644581 0.279100684643 7 15 10
0.332972644746 0.005821756764 0.223195351197 6 12 8
0.262913122488 0.002773677371 0.174322096500 5 9 6
0.235587492383 0.000723054792 0.111358711080 5 9 6
0.372902925601 0.007824363557 0.246310806607 6 12 8
0.318724680539 0.005704859681 0.221691367073 7 15 10
0.247819966353 0.002782829904 0.174513627673 5 9 6
0.352154322303 0.004200204629 0.200181501446 6 12 8
0.255965414878 0.003131570924 0.181518632026 6 12 8
0.215933720920 0.001634205579 0.146140084965 5 9 6
0.254239521640 0.002699576684 0.172755685320 5 9 6
0.213546829567 0.001997431726 0.156251588240 5 9 6
0.269870152202 0.003107160116 0.181045751156 7 12 7
0.319088607417 0.005352833494 0.217034297852 6 12 8
0.191150454753 0.001989010620 0.156031695091 6 12 8
0.338460971692 0.005000946132 0.212170264634 6 12 8
0.281580578462 0.004018015777 0.197244244010 6 12 8
0.222770298403 0.002183505588 0.160960221791 5 9 6
0.254684669974 0.003301080269 0.184736404806 6 12 8
0.297144480678 0.004460484370 0.204233885538 6 12 8
0.344822934795 0.005770423340 0.222537404168 6 12 8
0.271467621056 0.001132733211 0.129333094980 5 9 6
0.329505430119 0.003866507461 0.194733234161 6 12 8
0.269058387583 0.003226162084 0.183328163045 5 9 6
0.243826022927 0.002584980754 0.170275787388 5 9 6
0.383409827142 0.008264097381 0.250841237461 6 12 8
0.267957873081 0.004055618830 0.197857645269 6 12 8
0.276298904761 0.001991031416 0.156084518913 5 9 6
0.104762852536 0.000394551959 0.090998701197 5 9 6
0.297289536849 0.004702093580 0.207856789629 6 12 8
0.255185902950 0.002895678234 0.176841379109 6 12 8
0.152352965150 0.000928050956 0.121020162940 5 9 6
0.307271670080 0.004949247718 0.211436611296 7 15 10
0.263233709553 0.002956109566 0.178063115661 5 9 6
0.264036586597 0.003045801847 0.179846093081 5 9 6
0.279606276560 0.003224315881 0.183293185928 5 9 6
0.226407696066 0.002591877715 0.170427089935 6 12 8
0.237806309985 0.002587485712 0.170330771156 5 9 6
0.193024531454 0.001594317962 0.144941284406 5 9 6
0.237070907925 0.002437581113 0.166975781441 6 12 8
0.372786082289 0.006205360405 0.227993673431 7 15 10
0.270613227455 0.003854080218 0.194524381201 6 12 8
0.267710869967 0.003676935995 0.191497223963 6 12 8
0.208246254222 0.001972411229 0.155596425104 5 9 6
0.372676063822 0.007693459520 0.244929455439 6 12 8
0.305678518609 0.004661655079 0.207259209815 6 12 8
0.354170664214 0.006263681066 0.228705708446 6 12 8
0.367548303381 0.007207833092 0.239663574844 6 12 8
0.353344928345 0.006148694976 0.227297561012 6 12 8
0.288451297090 0.004499655185 0.204829986978 6 12 8
0.429876989940 0.009926257674 0.266642255398 6 12 8
0.214506147179 0.002499772368 0.168383919185 6 12 8
0.311137728355 0.003748191171 0.192726323613 5 9 6
0.220535345724 0.002094936795 0.158753789486 5 9 6
0.094720904083 0.000400502105 0.091453864172 5 9 6
0.227876946031 0.001685678133 0.147658576373 5 9 6
0.297624639212 0.005108922250 0.213686403865 6 12 8
0.291426337925 0.004594923216 0.206265476957 7 15 10
0.176291391574 0.001167505444 0.130643186290 5 9 6
0.557985938921 0.017680730863 0.323221715050 8 18 12
0.361465683948 0.008053371318 0.248690789148 7 15 10
0.246155762388 0.003240626029 0.183601728095 6 12 8
0.324139002832 0.003906362952 0.195400043797 5 9 6
0.237990421179 0.002755606366 0.173942691437 6 12 8
0.194768845530 0.001635266957 0.146171716310 5 9 6
0.259973880119 0.002957073123 0.178082460375 6 12 8
0.337232752495 0.006122964363 0.226980058256 6 12 8
0.354111041607 0.004117264573 0.198855092660 5 9 6
0.225821381212 0.001491921758 0.141769391451 6 12 8
0.262539501876 0.003525343467 0.188828526641 6 12 8
0.330536460447 0.005676711829 0.221326156397 6 12 8
0.309678238833 0.004070247568 0.198095252608 6 12 8
0.361313004684 0.006704808265 0.233953338483 6 12 8
0.170753500545 0.000697093336 0.110009646621 5 9 6
0.316255141346 0.004667270485 0.207342397549 6 12 8
0.235492426795 0.003128302668 0.181455462890 6 12 8
0.275738770883 0.003990342958 0.196790381252 6 12 8
0.342014196946 0.006029805535 0.225823028778 6 12 8
0.242176229757 0.003349900548 0.185642651984 6 12 8
0.224445916650 0.001027906310 0.125213638799 5 9 6
0.170745935908 0.000731580686 0.111794696949 5 9 6
0.271209602866 0.001907495607 0.153870361721 5 9 6
0.189545307293 0.001613600489 0.145523276642 5 9 6
0.393430837634 0.008351643356 0.251723892793 7 15 10
0.269223690271 0.003607338910 0.190281299181 6 12 8
0.281713376446 0.004074762238 0.198168467187 6 12 8
0.390665527364 0.008386909018 0.252077705155 7 15 10
0.187695350602 0.001530737594 0.142988367785 5 9 6
0.235065909600 0.002777066067 0.174393059357 6 12 8
0.334132665764 0.006171527862 0.227578566350 6 12 8
0.346390249479 0.005557182738 0.219761706365 6 12 8
0.213448584170 0.001759402323 0.149780581693 5 9 6
0.284478038323 0.004234875475 0.200730796291 6 12 8
0.120580773739 0.000550934302 0.101710798411 5 9 6
0.236094760072 0.002047546825 0.157547581241 5 9 6
0.375223404115 0.007856994339 0.246652737176 6 12 8
0.212394879846 0.001351615723 0.137178127676 5 9 6
0.246194252742 0.003249955751 0.183777754974 6 12 8
0.233847836700 0.002200065997 0.161366122068 5 9 6
0.281156272555 0.003158860355 0.182044376741 5 9 6
0.320018476710 0.005363028061 0.217171992382 7 15 10
0.486365398019 0.010180256366 0.268897458511 6 12 8
0.314690208817 0.005466234961 0.218556246976 7 15 10
0.212025892353 0.001924281567 0.154320397214 5 9 6
0.360781487112 0.006482998057 0.231344452424 7 15 10
0.265661004266 0.002440130071 0.167033962891 5 9 6
0.295929314912 0.003650877752 0.191043774322 5 9 6
0.333246218708 0.005855750547 0.223628927912 6 12 8
0.399954631355 0.006956303368 0.236842678387 6 12 8
0.346633603309 0.005117180888 0.213801484149 6 12 8
0.364647230383 0.007395035397 0.241720719493 6 12 8
0.235019825901 0.002349791129 0.164946667554 5 9 6
0.200355182681 0.001290532129 0.135079693439 5 9 6
0.247999608395 0.002791847991 0.174701935039 5 9 6
0.249544409477 0.003015956913 0.179256743913 6 12 8
0.271055836887 0.004277132516 0.201396241412 6 12 8
0.230748705444 0.002247931858 0.162527993314 5 9 6
0.328693940086 0.006273167650 0.228821111370 7 15 10
0.264159071909 0.003624117627 0.190575859690 6 12 8
0.214752750841 0.002048373879 0.157568790808 5 9 6
0.187698321257 0.001632456072 0.146087916006 5 9 6
0.222440334079 0.002052138094 0.157665251048 6 12 8
0.323781436291 0.005488851368 0.218857255833 6 12 8
0.243651685635 0.003364423095 0.185910532320 6 12 8
0.341048120536 0.006248061628 0.228515446095 6 12 8
0.269391100758 0.004210699098 0.200348084705 6 12 8
0.145843812542 0.000282112566 0.081371927356 5 9 6
0.195646886913 0.001480325527 0.141401126261 5 9 6
0.188732480426 0.001050599044 0.126128372816 5 9 6
0.221452365810 0.001643012460 0.146402135464 5 9 6
0.336451211510 0.003471660470 0.187865142978 5 9 6
0.262971214115 0.003870462405 0.194799607293 6 12 8
0.241340247779 0.002289117724 0.163514587042 5 9 6
0.249621391511 0.003025737263 0.179450303484 6 11 7
0.338607837984 0.006658259081 0.233410661410 7 15 10
0.336852110613 0.006399705196 0.230349415941 6 12 8
0.311814008150 0.003695817074 0.191824444136 6 12 8
0.359427605229 0.005715932326 0.221834702383 6 12 8
0.303307354173 0.004725872641 0.208206586343 6 12 8
0.348764458589 0.006398618890 0.230336381792 6 12 8
0.303632276135 0.004211703732 0.200364017162 6 12 8
0.254207435873 0.002545433313 0.169402975298 5 9 6
0.251210660969 0.003345923552 0.185569158002 6 12 8
0.286180341320 0.002903138033 0.176993107517 5 9 6
0.357343789670 0.007204952447 0.239631643026 7 15 10
0.176830042851 0.001416909808 0.139352424175 5 9 6
0.194671661801 0.001430563592 0.139798608467 5 9 6
0.327194295457 0.004808275084 0.209409748173 6 12 8
0.387951051909 0.006994112082 0.237270996988 7 15 10
0.312226837311 0.003868174103 0.194761209787 5 9 6
0.288080226440 0.003294656949 0.184616505515 6 12 8
0.259516110514 0.003766682258 0.193042731771 6 12 8
0.351020310536 0.005843269459 0.223469932203 6 12 8
0.278960326424 0.003539320669 0.189077751908 5 9 6
0.344544180281 0.005911927448 0.224341778141 6 12 8
0.212549302735 0.002075636716 0.158264766261 5 9 6
0.325014973814 0.005182174843 0.214702851854 6 12 8
0.306433315963 0.005426569937 0.218026321451 7 15 10
0.298314001574 0.004550687035 0.205601422685 6 12 8
0.307053419205 0.005247174455 0.215596791680 6 12 8
0.186982019787 0.001169667347 0.130723775152 5 9 6
0.310660339860 0.005221925818 0.215250428779 6 12 8
0.205556911424 0.001390818512 0.138491763914 5 9 6
0.268410526474 0.003751142370 0.192776892400 6 12 8
0.258951567350 0.002709508463 0.172967282866 5 9 6
0.245294473538 0.003715813312 0.192169777801 7 15 10
0.296818878072 0.004661386626 0.207255231219 7 15 10
0.311863443013 0.005280039651 0.216045978743 6 12 8
0.308493962327 0.005041575890 0.212743301942 6 12 8
0.265331885298 0.003788401757 0.193413062833 6 12 8
0.280277759396 0.003246825905 0.183718740753 6 12 8
0.301458111519 0.004530130316 0.205291369076 6 12 8
0.330394375797 0.006579201391 0.232483170326 7 15 10
0.427783589312 0.008614011732 0.254332745152 6 12 8
0.183641153664 0.001481997475 0.141454341208 5 9 6
0.268857288713 0.003524816727 0.188819121554 6 12 8
0.277938740451 0.004598063788 0.206312459541 7 15 10
0.331224334273 0.005514966193 0.219203799407 6 12 8
0.135227815159 0.000674134487 0.108788412888 5 8 5
0.310599232729 0.004302931217 0.201800355607 5 9 6
0.318954630954 0.006106139396 0.226771965408 7 15 10
0.287529496512 0.004670842178 0.207395274603 8 18 12
0.296727448900 0.004741965368 0.208442649683 7 15 10
0.287247191527 0.003695373689 0.191816772815 6 12 8
0.225954257279 0.001995545010 0.156202375815 5 9 6
0.197316759560 0.001491343264 0.141751065328 5 9 6
0.334501311765 0.006338496012 0.229612679340 6 12 8
0.203899555838 0.002228196018 0.162050953403 6 12 8
0.224782968954 0.002335984163 0.164622966708 5 9 6
0.201219102562 0.001825805233 0.151641687395 5 9 6
0.190965010904 0.001581253630 0.144544300257 5 9 6
0.316451773419 0.005602352534 0.220355521481 6 12 8
0.211512891358 0.002125808442 0.159529805265 6 12 8
0.174437618818 0.001086224949 0.127538229511 5 9 6
0.284072458925 0.004561053214 0.205757419994 6 12 8
0.240555627110 0.002382195411 0.165701429014 5 9 6
0.294775441514 0.004298706832 0.201734295085 6 12 8
0.248667619931 0.003289174043 0.184514036890 6 12 8
0.308971512152 0.005068099701 0.213115731545 6 12 8
0.320549609056 0.004445661229 0.204007396881 6 12 8
0.310298951393 0.004913034658 0.210919662865 6 12 8
0.173320828783 0.001358409318 0.137407575432 5 9 6
0.346210567265 0.005410157140 0.217806290778 5 9 6
0.230916427484 0.001256826304 0.133893310526 5 9 6
0.250849214788 0.002726702552 0.173332385508 5 9 6
0.288034059373 0.003322528520 0.185135639996 5 9 6
0.325944856891 0.005839583688 0.223422936122 6 12 8
0.157708597395 0.000373896928 0.089382210661 5 8 5
0.239123389341 0.003196610821 0.182766690449 6 12 8
0.410498644060 0.009734034744 0.264909839738 7 15 10
0.216627958409 0.001721625158 0.148700807188 5 9 6
0.229849509882 0.001813975858 0.151313482530 5 9 6
0.251754206692 0.003602424594 0.190194852504 6 12 8
0.236640320272 0.003096370875 0.180835954904 6 12 8
0.326362290082 0.004372473483 0.202881690072 5 9 6
0.177748767588 0.001390511397 0.138481569427 5 9 6
0.351027049557 0.006414058536 0.230521497546 6 12 8
0.196442194444 0.001290422570 0.135075870817 5 9 6
0.315423357055 0.004527156945 0.205246444611 5 9 6
0.333873429076 0.005131057219 0.213994565884 6 12 8
0.268679342435 0.002461138789 0.167511962863 5 9 6
0.304712555107 0.005201682537 0.214971922475 6 12 8
0.244310826620 0.003450196953 0.187477184029 6 12 8
0.328841306517 0.004863235404 0.210204603672 6 12 8
0.347555420493 0.006922722399 0.236460950774 7 15 10
0.200946373917 0.001667598791 0.147128785423 5 9 6
0.102946896659 0.000607380441 0.105072095430 4 6 4
