0.026669759307 0.000222702379 0.075204196905 10 24 16
0.037975552511 0.000477617649 0.096982620486 7 15 10
0.019593043508 0.000101307395 0.057838121024 5 9 6
0.215830939497 0.004131742222 0.199087899842 8 18 12
0.411630052664 0.012739320480 0.289767192912 13 33 22
0.470200154407 0.015569611093 0.309808299134 19 51 34
0.445067201764 0.014731564156 0.304146913132 23 63 42
0.313844716552 0.008224995416 0.250444989490 20 54 36
0.051807310922 0.000310090656 0.083977579468 11 27 18
0.066637849207 0.000800126678 0.115182555442 11 27 18
0.110603286289 0.002463403094 0.167563318764 17 45 30
0.038417819379 0.000239087550 0.077005092473 7 15 10
0.016771252529 0.000031542713 0.039201270437 4 6 4
0.283572911131 0.005804881772 0.222979490540 7 15 10
0.529133324433 0.016041801190 0.312909082480 9 21 14
0.691510101499 0.024418076649 0.359946214172 17 45 30
0.652969150631 0.022634506618 0.350959877647 26 72 48
0.380523469888 0.008072747178 0.248890073744 25 69 46
0.100167059084 0.001381674487 0.138187588686 13 33 22
0.188029396304 0.005369641016 0.217261218009 24 66 44
0.129832945010 0.002499545333 0.168378821347 16 42 28
0.068435016009 0.000483775931 0.097397664928 10 24 16
0.264334426222 0.007335915598 0.241074847791 20 54 36
0.317115238706 0.009744020442 0.265000395047 15 39 26
0.257184262617 0.006649231510 0.233305124085 15 39 26
0.080822025318 0.000972457360 0.122920404770 8 18 12
0.071054360680 0.000772405975 0.113836709586 13 33 22
0.239037954238 0.006311143000 0.229281914513 19 51 34
0.288775286323 0.008925195267 0.257359202072 22 60 40
0.194148997936 0.004253755663 0.201028657629 16 42 28
0.019919560413 0.000097252092 0.057055840846 5 9 6
0.066096529794 0.001029759774 0.125288853028 11 27 18
0.068910608765 0.001108033774 0.128386135139 12 30 20
0.000220938459 0.000000118133 0.006087756086 4 6 4
0.023677705314 0.000109897499 0.059428722592 7 15 10
0.197600127573 0.004473006666 0.204424828003 16 42 28
0.262704694368 0.007839612445 0.246470714334 20 54 36
0.181784485183 0.003756504893 0.192868711385 15 39 26
0.017804997976 0.000074344256 0.052169450880 6 12 8
0.132064557564 0.002253956800 0.162673067137 20 54 36
0.220250888839 0.006226043163 0.228246697070 21 57 38
0.192123893235 0.004528523197 0.205267089660 17 45 30
0.050152804776 0.000411186911 0.092260021836 8 18 12
0.004482208846 0.000013233586 0.029346725191 4 6 4
0.115296726560 0.001740910110 0.149253975723 6 12 8
0.273621589262 0.007420978138 0.242003052113 14 36 24
0.314611419451 0.009381705680 0.261674293723 19 51 34
0.184947532048 0.003207139147 0.182967123406 18 48 32
0.202841443215 0.002928848390 0.177514059700 8 18 12
0.314087020681 0.009524746227 0.262997485962 12 30 20
0.304972495559 0.009155166455 0.259550901017 16 42 28
0.194416540104 0.003639369101 0.190842820775 16 42 28
0.042597622769 0.000417314336 0.092716044234 8 18 12
0.130947180333 0.002671540454 0.172155556347 11 27 18
0.141048472093 0.003187486768 0.182592635053 11 27 18
0.054462337270 0.000604863836 0.104926776876 9 21 14
0.104995593980 0.001551754100 0.143639789417 9 21 14
0.200512765927 0.005535882796 0.219480574420 14 36 24
0.142258092000 0.002638116298 0.171434584117 10 24 16
0.006883866575 0.000010391362 0.027074344806 6 12 8
0.003026396075 0.000005099862 0.021356000706 5 9 6
0.133328811692 0.002785655658 0.174572676167 22 60 40
0.159377768081 0.004124558317 0.198972447470 19 51 34
0.073576755820 0.000918809810 0.120617132745 11 27 18
0.175505333956 0.003011333850 0.179165104784 13 33 22
0.312767570126 0.009232716083 0.260281690913 17 45 30
0.379585546460 0.012196054821 0.285588192974 18 48 32
0.370404956808 0.011416764783 0.279371099525 15 39 26
0.157004442582 0.001497049925 0.141931639832 10 24 16
0.127283692054 0.001918427534 0.154163747502 14 36 24
0.287665741230 0.008684124531 0.255020919192 24 66 44
0.280984219952 0.008039873002 0.248551767285 16 42 28
0.138970408151 0.002281600280 0.163335397231 11 27 18
0.002623019169 0.000004988481 0.021199383775 5 9 6
0.002571627058 0.000003195823 0.018275166781 5 9 6
0.118445238699 0.002408748264 0.166314812608 19 51 34
0.130799889746 0.003107282441 0.181048126967 19 51 34
0.023723202138 0.000107611851 0.059013833329 8 18 12
0.037117355510 0.000311300264 0.084086631616 4 6 4
0.218180715218 0.004419071377 0.203599855141 5 9 6
0.473890254934 0.013713189541 0.296970483119 7 15 10
0.701294487141 0.023872267174 0.357244058603 13 33 22
0.806570218779 0.028565449169 0.379269115081 18 48 32
0.749776114534 0.025988919288 0.367504955323 27 75 50
0.464932521995 0.009627296904 0.263937995702 25 69 46
0.088347489538 0.001028816341 0.125250579485 8 18 12
0.305886179647 0.008028817239 0.248437785793 15 39 26
0.377925978365 0.012140583663 0.285154555850 18 48 32
0.306492615193 0.008604905653 0.254243093133 14 36 24
0.137086993807 0.002018781977 0.156806333053 10 24 16
0.002161462542 0.000003928884 0.019577482467 4 6 4
0.000010747369 0.000000001257 0.001339063189 4 6 4
0.096932905455 0.001381585679 0.138184627923 10 24 16
0.208858467811 0.005741991367 0.222171307536 19 51 34
0.207187053030 0.005565160114 0.219866812598 18 48 32
0.072912044894 0.000762481240 0.113347039220 11 27 18
0.000163468807 0.000000046305 0.004455308286 5 9 6
0.088332234344 0.001563283606 0.143994659009 11 27 18
0.118977881232 0.002661531999 0.171940303856 13 33 22
0.062789267584 0.000814849583 0.115884746499 13 33 22
0.062031762896 0.000926242015 0.120941481672 9 21 14
0.058481328830 0.000884542013 0.119098588477 11 27 18
0.000001700763 0.000000000075 0.000522635752 4 6 4
0.049914540782 0.000398854396 0.091328274703 11 27 18
0.187925443079 0.005027716483 0.212548177638 24 66 44
0.187066912168 0.005082351743 0.213315312713 23 63 42
0.055139667008 0.000347601493 0.087235717363 9 21 14
0.037583951116 0.000213106927 0.074108208542 8 18 12
0.134715845993 0.003378922282 0.186177213858 24 66 44
0.087551572075 0.001302790666 0.135506045695 15 39 26
0.101046289925 0.001801868794 0.150976092356 16 42 28
0.114064812927 0.002431585415 0.166838766065 14 36 24
0.009460130513 0.000020015591 0.033686555005 5 9 6
0.047302940679 0.000453111594 0.095294722725 9 21 14
0.103956197361 0.002424544669 0.166677581097 19 51 34
0.030291207988 0.000191052089 0.071458032820 8 18 12
0.112705011144 0.001926159626 0.154370585376 18 48 32
0.164245108228 0.004423787950 0.203672264946 26 72 48
0.087587259788 0.001168061872 0.130663937645 17 45 30
0.055196333156 0.000744277612 0.112437740872 9 21 14
0.051554563710 0.000691855895 0.109733443512 10 24 16
0.000233252903 0.000000106531 0.005881565970 4 6 4
0.016069028223 0.000093279277 0.056268091153 6 12 8
0.115429450142 0.002216193407 0.161759456392 12 30 20
0.132800388695 0.003129572191 0.181480005569 19 51 34
0.025686083629 0.000160528728 0.067429723828 7 15 10
0.014772628183 0.000053760602 0.046826155173 7 15 10
0.148805589428 0.003418805891 0.186906873899 21 57 38
0.161682916387 0.004063652446 0.197988201911 17 45 30
0.056236332917 0.000631429453 0.106440948943 9 21 14
0.096357105403 0.001248637078 0.133601869382 12 30 20
0.216195407109 0.006198760906 0.227912819800 27 75 50
0.185857977213 0.004348838278 0.202515473521 22 60 40
0.025442411425 0.000145222710 0.065214670555 7 15 10
0.090016737033 0.001101605061 0.128137358438 16 42 28
0.156615889863 0.004176170811 0.199798954087 24 66 44
0.095370499909 0.001598804074 0.145077102978 16 42 28
0.087369238909 0.001213467038 0.132335527799 14 36 24
0.183351857011 0.004978454439 0.211851708892 19 51 34
0.164276849028 0.004111806991 0.198767190615 20 54 36
0.043024842506 0.000273471095 0.080532454494 11 27 18
0.009469093842 0.000027668147 0.037525557356 6 12 8
0.206913931606 0.004231073873 0.200670713686 13 33 22
0.322325447451 0.009450651934 0.262313745542 18 48 32
0.350234411733 0.010993288912 0.275873302028 21 57 38
0.288318736101 0.008001382421 0.248154488626 20 54 36
0.092463448136 0.001015253594 0.124697755885 8 18 12
0.049753350071 0.000558559817 0.102177911660 10 24 16
0.084600371845 0.001695128340 0.147933995623 14 36 24
0.018010306836 0.000074651240 0.052241158624 8 18 12
0.076894579158 0.000886335321 0.119179020423 9 21 14
0.241368799880 0.006172619004 0.227591977722 18 48 32
0.283120466765 0.008547711055 0.253678544297 25 69 46
0.150935251441 0.002794564881 0.174758587132 20 54 36
0.002742024627 0.000004772016 0.020888203514 6 12 8
0.151297251272 0.002287935419 0.163486431018 7 15 10
0.342261427436 0.009344963935 0.261332246880 9 21 14
0.466141939978 0.014747911440 0.304259373194 16 42 28
0.418606609552 0.012938868822 0.291272329517 17 45 30
0.259451424923 0.006307652151 0.229239632889 20 54 36
0.044195631829 0.000138850847 0.064246573507 11 27 18
0.012064998457 0.000012600242 0.028870884105 5 9 6
0.194035850113 0.004548876769 0.205574156268 19 51 34
0.247382104999 0.007408648547 0.241868952425 22 60 40
0.171676147204 0.003082074654 0.180557213562 16 42 28
0.000323163270 0.000000149232 0.006580935643 4 6 4
0.018068216269 0.000105047406 0.058541283057 5 9 6
0.102725755625 0.002055428383 0.157749470084 13 33 22
0.091024271094 0.001657535231 0.146832225706 13 33 22
0.002371539968 0.000003968246 0.019642645754 5 9 6
0.027478139232 0.000109149792 0.059293637845 8 18 12
0.336197494124 0.007783497248 0.245881234329 25 69 46
0.539831338075 0.018025169200 0.325307125340 25 69 46
0.515235968905 0.015870040500 0.311788292960 17 45 30
0.274787954580 0.005213307669 0.215131948742 9 21 14
0.022747817936 0.000112813346 0.059949737564 5 9 6
0.142055088819 0.001783882807 0.150472071284 15 39 26
0.295718741229 0.008791278664 0.256065542431 22 60 40
0.336647926799 0.010706966168 0.273457141267 20 54 36
0.232229385076 0.004807056494 0.209392056029 14 36 24
0.029461422880 0.000118825144 0.060996264996 6 12 8
0.061568421739 0.000584767130 0.103751593752 8 18 12
0.217824620015 0.005757343529 0.222369135216 19 51 34
0.239327126607 0.006832945206 0.235434320179 20 54 36
0.123392141783 0.002056699346 0.157781977885 15 39 26
0.069671214386 0.000938778684 0.121484685165 12 30 20
0.160909254104 0.004217889216 0.200462056844 22 60 40
0.137533790611 0.003174871761 0.182351436365 16 42 28
0.028703241462 0.000094922640 0.056596607011 7 15 10
0.047328505362 0.000425581118 0.093324264575 10 24 16
0.143979686765 0.003662031013 0.191238119815 20 54 36
0.104895600968 0.001888238801 0.153350818540 12 30 20
0.000507854169 0.000000358565 0.008814340752 4 6 4
0.069911873817 0.000886469301 0.119185025202 15 39 26
0.127225527882 0.003138415914 0.181650790292 22 60 40
0.066903458165 0.000847161335 0.117396685268 13 33 22
0.070725773406 0.000507658997 0.098974767071 11 27 18
0.191034690303 0.005122230296 0.213871784319 18 48 32
0.177210293439 0.004605582042 0.206424844887 17 45 30
0.058948431103 0.000486956372 0.097610636227 9 21 14
0.110715779077 0.001833834555 0.151863653292 16 42 28
0.225436933400 0.006339230434 0.229621547169 20 54 36
0.247856827459 0.007241844821 0.240039951706 20 54 36
0.134495809360 0.001922116027 0.154262485980 16 42 28
0.061110509201 0.000657128326 0.107865821460 5 9 6
0.111102315214 0.002512203558 0.168662578173 16 42 28
0.024686061983 0.000124042641 0.061876270256 9 21 14
0.002552246078 0.000004827705 0.020969144256 6 12 8
0.110353851960 0.001954009714 0.155111036062 10 24 16
0.163719707213 0.004236611607 0.200758223109 15 39 26
0.090944453741 0.001160441239 0.130379159565 13 33 22
0.001340121521 0.000001876713 0.015303815043 4 6 4
0.110477523843 0.001655529452 0.146772974708 11 27 18
0.195039578092 0.005258496690 0.215751750237 15 39 26
0.138462341100 0.002192472285 0.161180251821 12 30 20
0.031314641370 0.000184694992 0.070656507282 7 15 10
0.191085516305 0.004186832812 0.199968842272 13 33 22
0.236853975589 0.006701137721 0.233910638146 16 42 28
0.145685099572 0.002932413227 0.177586050700 10 24 16
0.020771892958 0.000131965932 0.063166634084 5 9 6
0.000521360660 0.000000517453 0.009960722296 4 6 4
0.090476845112 0.001242806685 0.133393597780 9 21 14
0.160613206353 0.004119521878 0.198891427027 14 36 24
0.069856312377 0.000776897718 0.114056946671 8 18 12
0.022831520243 0.000130692931 0.062962866418 5 9 6
0.165575872095 0.003528408888 0.188883241988 13 33 22
0.234763667822 0.006735274167 0.234307155755 17 45 30
0.174399374080 0.003658802406 0.191181901979 17 45 30
0.014227697712 0.000060813516 0.048790338368 5 9 6
0.050688705201 0.000644753519 0.107184429202 9 21 14
0.060701759881 0.000940494713 0.121558662246 11 27 18
0.077470196212 0.000844779407 0.117286555510 10 24 16
0.169747471780 0.004429054173 0.203753052286 16 42 28
0.169244222614 0.004451612456 0.204098388434 16 42 28
0.064750029628 0.000654814516 0.107739070718 11 27 18
0.050984195314 0.000502204575 0.098619019584 6 12 8
0.111912768691 0.002496721136 0.168315381249 13 33 22
0.057237454602 0.000740192712 0.112231661946 10 24 16
0.006332997482 0.000020562301 0.033990511345 6 12 8
0.081545328241 0.001563284816 0.143994696171 19 51 34
0.058930089755 0.000810063186 0.115657399853 12 30 20
0.062835694482 0.000764070982 0.113425759136 10 24 16
0.164823518195 0.004031854206 0.197470427202 14 36 24
0.222467744279 0.006286368886 0.228981509084 18 48 32
0.178241955872 0.004126672418 0.199006437059 15 39 26
0.048155537939 0.000463546578 0.096020711337 7 15 10
0.085054727879 0.000366400577 0.088780824824 6 12 8
0.406302560772 0.011731652728 0.281916303431 15 39 26
0.396931746898 0.012663101764 0.289188149047 18 48 32
0.274292221626 0.006765045041 0.234651872060 22 60 40
0.032254310794 0.000160793274 0.067466744071 9 21 14
0.056039617442 0.000535408660 0.100746257727 9 21 14
0.121319949709 0.002816454819 0.175213697875 14 36 24
0.078994292028 0.001228558745 0.132881881395 10 24 16
0.006659778774 0.000019475532 0.033380812216 5 9 6
0.129429928278 0.002248110307 0.162532293903 9 21 14
0.269551802158 0.007407961127 0.241861471497 15 39 26
0.305868426347 0.009302162824 0.260932658010 16 42 28
0.187994386455 0.003921235250 0.195647705329 12 30 20
0.023150655440 0.000138354544 0.064169935340 5 9 6
0.000100847993 0.000000029558 0.003836119248 4 6 4
0.093036433602 0.001740868659 0.149252791117 16 42 28
0.123953478178 0.002915232247 0.177238546163 12 30 20
0.055427012442 0.000326854495 0.085464406239 9 21 14
