0.169199908683 0.004123130957 0.198949492446 11 27 18
0.219911267565 0.005518803770 0.219254631781 10 24 16
0.136958560703 0.002655681719 0.171814231492 13 33 22
0.099992248811 0.001861398721 0.152620754524 12 30 20
0.167821149311 0.003840413872 0.194294184825 11 27 18
0.155478628648 0.003749048811 0.192741022002 15 39 26
0.167277880950 0.003911387578 0.195483786778 12 30 20
0.072385778060 0.000994605990 0.123846617420 9 21 14
0.167521129360 0.004076812430 0.198201697369 17 45 30
0.236779254901 0.006670879003 0.233558035523 14 36 24
0.245402251628 0.007188311671 0.239447013986 13 33 22
0.369698754780 0.013310547792 0.294035049563 18 48 32
0.079633674718 0.001192998672 0.131587240455 9 21 14
0.323177229752 0.011058299702 0.276416042352 12 30 20
0.117000749407 0.002342902553 0.164785325594 14 36 24
0.191292526150 0.005021290114 0.212457580154 8 18 12
0.180819405796 0.004521673590 0.205163545365 14 36 24
0.096818704029 0.001770001660 0.150080758905 10 24 16
0.088478815788 0.001465447208 0.140925803134 13 33 22
0.167670277388 0.003938432353 0.195933301297 15 39 26
0.158729251923 0.003381183486 0.186218735077 10 24 16
0.058015830862 0.000772595403 0.113846014745 9 21 14
0.149692197681 0.003067196772 0.180266214448 11 27 18
0.189132844635 0.004790365919 0.209149431702 11 27 18
0.041211943501 0.000439078798 0.094300634487 7 15 10
0.530483451627 0.025032110833 0.362938425002 21 57 38
0.100113705674 0.001673093219 0.147290195588 10 24 16
0.178398952232 0.004153195527 0.199431880836 18 48 32
0.350327159388 0.012077288420 0.284658138635 14 36 24
0.119268400104 0.001998215004 0.156272009865 13 33 22
0.058497024434 0.000740980820 0.112271480083 9 21 14
0.328874097639 0.009844084493 0.265904428365 16 42 28
0.088759266470 0.001539646882 0.143265241050 13 33 22
0.174759882223 0.004586924304 0.206145717415 17 45 30
0.080417508544 0.001294060321 0.135202679768 13 33 22
0.128142486869 0.002429547025 0.166792132911 8 18 12
0.385581731920 0.015441893729 0.308958854094 24 66 44
0.099307070796 0.001599214705 0.145089522277 13 33 22
0.097239755531 0.001490993114 0.141739970651 9 21 14
0.145134052807 0.003215224614 0.183120752870 11 27 18
0.052910444503 0.000664058329 0.108243676637 8 18 12
0.183683541906 0.004738834432 0.208396764049 15 39 26
0.121504882118 0.002405784586 0.166246574419 13 33 22
0.272275727203 0.008639420953 0.254582572739 12 30 20
0.056618443338 0.000719032533 0.111151835665 10 24 16
0.196338556084 0.004259691717 0.201122125024 10 24 16
0.043544996268 0.000474676129 0.096783113650 8 18 12
0.127825089514 0.002401517920 0.166148236660 10 24 16
0.054071740382 0.000570466930 0.102898872746 6 12 8
0.116943726556 0.001995934476 0.156212537066 8 18 12
0.055645387280 0.000769331561 0.113685473661 7 15 10
0.070934821697 0.001072507797 0.126999090837 12 30 20
0.424762066642 0.016301770157 0.314590338783 13 33 22
0.051677770643 0.000617919789 0.105676355516 7 15 10
0.245406661803 0.007170578231 0.239249947968 11 27 18
0.784230948131 0.045220725188 0.442024457820 17 45 30
0.171294322123 0.003704316752 0.191971384834 11 27 18
0.082299355276 0.001237513352 0.133203945981 9 21 14
0.249000814723 0.007840907525 0.246484285655 16 42 28
0.186184898108 0.004592031318 0.206222195578 12 30 20
0.073105964316 0.001194586203 0.131645582571 7 15 10
0.113481337196 0.002221966547 0.161899794670 14 36 24
0.094090759462 0.001617380349 0.145636817484 11 27 18
0.132891367445 0.002614676421 0.170925336172 13 33 22
0.265587564501 0.007730774313 0.245324802308 14 36 24
0.146223899906 0.002926129038 0.177459103784 10 24 16
0.093302951325 0.001614539261 0.145551492356 8 18 12
0.116228949568 0.002111127139 0.159161707204 11 27 18
0.114790067623 0.001900772446 0.153689371687 9 21 14
0.092932504517 0.001475155643 0.141236324661 10 24 16
0.056378476962 0.000729099716 0.111668179397 10 24 16
0.054717446959 0.000666341358 0.108367581813 9 21 14
0.102272068152 0.001608515637 0.145370255910 9 21 14
0.133575962552 0.003006636167 0.179071890395 11 27 18
0.114700663933 0.002227250326 0.162028024240 12 30 20
0.083485854765 0.001416024639 0.139323399458 9 21 14
0.134125143394 0.002800949700 0.174891577808 8 18 12
0.083504653650 0.001316500024 0.135979701353 12 30 20
0.213034968736 0.005951833684 0.224845424802 13 33 22
0.105271724254 0.001684666952 0.147629045338 8 18 12
0.123122526798 0.002444192903 0.167126615686 15 39 26
0.257639831218 0.008187301832 0.250061823035 14 36 24
0.158847625240 0.003779545527 0.193262229920 17 45 30
0.304730480435 0.009296069506 0.260875671516 16 42 28
0.120864025653 0.002262370027 0.162875216267 13 33 22
0.171011487223 0.004004598167 0.197024442504 14 36 24
0.354145703862 0.010976916887 0.275736283619 12 30 20
0.282215481773 0.008670332966 0.254885845086 13 33 22
0.060577834890 0.000808976315 0.115605650405 10 24 16
0.220686022834 0.005950442950 0.224827910606 9 21 14
0.156605868325 0.003356573148 0.185765829529 11 27 18
0.222449979621 0.006051758612 0.226096752692 13 33 22
0.046650404537 0.000509246644 0.099077837234 8 18 12
0.127613272848 0.002672527468 0.172176754991 15 39 26
0.079855213731 0.001322738202 0.136194140979 11 27 18
0.143826822388 0.003117991564 0.181255880166 12 30 20
0.196909619310 0.004772722195 0.208892338287 12 30 20
0.185740664279 0.004448806609 0.204055498422 12 30 20
0.310540003821 0.009326308404 0.261158230169 12 30 20
0.077690690864 0.001228340332 0.132874006369 12 30 20
0.051527415101 0.000540136124 0.101041906919 7 15 10
0.299708771481 0.009782338266 0.265347307197 17 45 30
0.070759013463 0.001003353123 0.124208617563 7 15 10
0.062272529273 0.000811439064 0.115722843489 10 24 16
0.065913644317 0.000873192287 0.118587001932 8 18 12
0.057440964686 0.000730956019 0.111762868916 11 27 18
0.223508378057 0.005729135784 0.222005379271 14 36 24
0.075251802487 0.001134533690 0.129401583703 10 24 16
0.064870473525 0.000854797837 0.117748377299 11 27 18
0.245725173414 0.006882705529 0.236004448355 14 36 24
0.079074645540 0.001242591118 0.133385884873 11 27 18
0.023362685686 0.000169662048 0.068685019744 6 12 8
0.093797784353 0.001648793904 0.146573654753 12 30 20
0.150700639754 0.002929702083 0.177531305147 12 30 20
0.064153340054 0.000884518550 0.119097535393 10 24 16
0.043840216547 0.000410306660 0.092194139373 7 15 10
0.046559472882 0.000537707703 0.100890253210 9 21 14
0.055597758581 0.000676901257 0.108937038866 9 21 14
0.158945428585 0.003748328172 0.192728671708 8 18 12
0.104326872000 0.001707075411 0.148280722971 9 21 14
0.166677924306 0.004248157277 0.200940427346 12 30 20
0.031867806562 0.000267675454 0.079959482636 7 15 10
0.136380689785 0.003122887881 0.181350708528 14 36 24
0.280326785532 0.009036822356 0.258427687232 12 30 20
0.113747502084 0.002052873451 0.157684081234 11 27 18
0.091910478801 0.001557320993 0.143811352893 8 18 12
0.377292679473 0.013626123886 0.296340655328 15 39 26
0.093342963714 0.001581715397 0.144558369126 12 30 20
0.120742153597 0.002332583960 0.164543054153 10 24 16
0.174141931853 0.004138964626 0.199203836099 21 57 38
0.055880087224 0.000601743550 0.104746038543 6 12 8
0.314014987006 0.011224604448 0.277794818604 17 45 30
0.030537495068 0.000260879909 0.079277023719 6 12 8
0.231421401705 0.006801270073 0.235069959656 16 42 28
0.129057167581 0.002703440730 0.172838070795 11 27 18
0.118861713689 0.002509084100 0.168592738610 8 18 12
0.039681520603 0.000431089418 0.093725172113 9 21 14
0.165940842747 0.003381454839 0.186223716521 12 30 20
0.074553354632 0.001104333853 0.128243074465 10 24 16
0.361039972848 0.012270116696 0.286165115236 10 24 16
0.206823821726 0.005239549904 0.215492314767 12 30 20
0.259803174969 0.007718700613 0.245197022039 18 48 32
0.293712392719 0.009324462928 0.261141003166 14 36 24
0.035487703499 0.000357840877 0.088084016401 9 21 14
0.094320465521 0.001457221873 0.140661643159 11 27 18
0.257414076441 0.007356842320 0.241303863369 13 33 22
0.074495067399 0.001088443108 0.127624984915 11 27 18
0.036376769999 0.000344167623 0.086947506178 8 18 12
0.220137466272 0.006094788956 0.226631366036 13 33 22
0.129411067924 0.002412386481 0.166398505443 12 30 20
0.112131278494 0.001972125054 0.155588899629 11 27 18
0.048686454171 0.000479433304 0.097105357680 6 12 8
0.084216425887 0.001270515832 0.134377684367 10 24 16
0.522994415710 0.018301531367 0.326961238217 18 48 32
0.077201318724 0.001101706173 0.128141278718 11 27 18
0.090536323214 0.001487028227 0.141614219601 12 30 20
0.133969209790 0.002477381238 0.167879657300 9 21 14
0.119832097194 0.002328526301 0.164447588198 11 27 18
0.048165494067 0.000558486434 0.102173436816 9 21 14
0.032259678023 0.000279231452 0.081093971588 8 18 12
0.074297132616 0.001049586700 0.126087847897 9 21 14
0.158260376144 0.003232200558 0.183442471465 11 27 18
0.115344531815 0.002188844754 0.161091309749 8 18 12
0.103790090803 0.001689197987 0.147761279919 7 15 10
0.045910968538 0.000514476367 0.099415843670 7 15 10
0.165148892328 0.003232211937 0.183442686734 10 24 16
0.071074701585 0.000757066101 0.113078071360 6 12 8
0.059547551314 0.000766114920 0.113526809436 9 21 14
0.080814250613 0.001194637000 0.131647448503 11 27 18
0.123373696126 0.001932504095 0.154539890498 7 15 10
0.327088584235 0.011708072000 0.281727291962 14 36 24
0.206745418544 0.005353988156 0.217049902259 12 30 20
0.078140584804 0.001135932580 0.129454746257 6 12 8
0.166904833895 0.003923256242 0.195681311617 14 36 24
0.151757976674 0.003355379365 0.185743804055 11 27 18
0.125535843825 0.002277444132 0.163236160049 11 27 18
0.029492025190 0.000239025245 0.076998402810 7 15 10
0.201421753113 0.005269779291 0.215905945263 10 24 16
0.201434557302 0.005340866886 0.216872445751 13 33 22
0.105126039375 0.001836463706 0.151936193784 9 21 14
0.124810224623 0.002560864274 0.169744604890 12 30 20
0.027672839203 0.000245062904 0.077641333208 8 18 12
0.214180727785 0.006109055107 0.226808054566 16 42 28
0.146785317008 0.003120523988 0.181304938720 14 36 24
0.144144341898 0.003227504883 0.183353594580 10 24 16
0.124513291912 0.002442686186 0.167092267016 13 33 22
0.418595050501 0.016178061047 0.313792540905 16 42 28
0.104229578711 0.001829655879 0.151748217279 10 24 16
0.171599087052 0.003571255508 0.189644724890 12 30 20
0.111740309409 0.001971167225 0.155563706551 7 15 10
0.475671084637 0.021173727757 0.343241323184 19 51 34
0.086881342699 0.001420717810 0.139477150904 12 30 20
0.058253984451 0.000739415719 0.112192377726 10 24 16
0.228148291496 0.006053751477 0.226121568126 9 21 14
0.074419237336 0.001137013093 0.129495779565 10 24 16
0.085614129277 0.001246140780 0.133512776886 8 18 12
0.065358269242 0.000896522309 0.119633872147 9 21 14
0.484360113294 0.020577479117 0.339988725732 17 45 30
0.186984596208 0.004756147234 0.208650240368 15 39 26
0.102984294603 0.001753182154 0.149603862480 11 27 18
0.113710997408 0.002033638140 0.157190037897 10 24 16
0.133733422437 0.002736562161 0.173541054384 11 27 18
0.120398137786 0.002429055274 0.166780878984 13 33 22
0.655493664095 0.030330167178 0.386923755086 13 33 22
0.094495753533 0.001774229198 0.150200150067 14 36 24
0.145251007660 0.003246138999 0.183705783858 14 36 24
0.074818877738 0.001105748178 0.128297798244 9 21 14
0.194972111269 0.005275564882 0.215984929375 17 45 30
0.080602508690 0.001071842618 0.126972830077 7 15 10
0.262396395953 0.006638893573 0.233184150478 14 36 24
0.041723590667 0.000416017380 0.092619894975 8 18 12
0.197433199967 0.004891122895 0.210605633636 9 21 14
0.072554896881 0.001065464247 0.126720463555 11 27 18
0.291706726933 0.009593556127 0.263629293718 12 30 20
0.120651269981 0.002109922442 0.159131426662 9 21 14
0.236527873300 0.006376977859 0.230076411782 11 27 18
0.138395593537 0.002748865657 0.173800743930 8 18 12
0.144142669456 0.002951477337 0.177970058627 11 27 18
0.123331867709 0.002290622171 0.163550400715 10 24 16
0.055775891948 0.000716110064 0.111001040950 9 21 14
0.092517213599 0.001282649133 0.134804094415 8 18 12
0.203425077650 0.005188096101 0.214784595345 13 33 22
0.016794854785 0.000104062623 0.058357773679 6 12 8
0.033460469850 0.000340675772 0.086652455796 7 15 10
0.371549865252 0.014140322740 0.300022321052 21 57 38
0.172460105637 0.004208418912 0.200311913870 15 39 26
0.182023583750 0.004569987783 0.205891683918 15 39 26
0.153152345641 0.003379837180 0.186194015843 16 42 28
0.116027137451 0.002455687556 0.167388196087 13 33 22
0.248724269243 0.006650238749 0.233316904009 12 30 20
0.218635856234 0.005524491187 0.219329923722 9 21 14
0.075182058683 0.001051829153 0.126177580042 10 24 16
0.124492975594 0.002241080807 0.162362712405 11 27 18
0.163969161494 0.003495327684 0.188291085063 8 18 12
0.107905576307 0.001825526661 0.151633974765 9 21 14
0.272798574253 0.007666203285 0.244639869454 10 24 16
0.042758061264 0.000428085329 0.093506953398 9 21 14
0.042377627761 0.000472863072 0.096659733270 7 15 10
0.093215324839 0.001550826874 0.143611173813 10 24 16
0.108776619644 0.001978498238 0.155756321469 13 33 22
0.089007928564 0.001568250646 0.144147003101 13 33 22
0.070413959724 0.001088166111 0.127614157630 9 21 14
0.237146078332 0.007079217085 0.238229498210 13 33 22
0.060463360513 0.000856200094 0.117812729081 8 18 12
0.195198595411 0.004701709181 0.207851125327 12 30 20
0.155507331660 0.002938460386 0.177708038253 9 21 14
0.091139797118 0.001441536406 0.140155129683 10 24 16
0.062949812272 0.000770536832 0.113744811043 9 21 14
0.163993761193 0.003436479357 0.187228391275 11 27 18
0.089561729218 0.001454851715 0.140585340157 6 12 8
0.152660986062 0.003023038390 0.179396932725 11 27 18
0.161567453300 0.003349831351 0.185641373731 9 21 14
0.069189186716 0.000968309864 0.122745405388 11 27 18
0.068115001409 0.000934366865 0.121294079265 7 15 10
0.099491613357 0.001658839011 0.146870713912 8 18 12
0.068435995610 0.001000140650 0.124075914721 9 21 14
0.064464925176 0.000895727209 0.119598495048 10 24 16
0.130524331897 0.002545073800 0.169394999515 9 21 14
0.112572641014 0.001899024874 0.153642256534 8 18 12
0.052816162256 0.000646217837 0.107265511053 10 24 16
