0.159692433300 0.004844931753 0.209940558006 13 30 19
0.177565545556 0.005545251561 0.219604318796 11 27 18
0.131351240239 0.003596107955 0.190083622316 11 27 18
0.125345771725 0.003478028393 0.187979937239 13 30 19
0.123162874849 0.003250290510 0.183784064715 10 24 16
0.118962872243 0.003240007548 0.183590047078 14 34 22
0.145639670686 0.004363051923 0.202735865918 12 27 17
0.158746699017 0.004397668578 0.203270626041 8 17 11
0.164914136599 0.005162753508 0.214434300778 14 33 21
0.159234085879 0.004845751819 0.209952402359 12 29 19
0.151443340074 0.003623144524 0.190558801143 8 17 11
0.104918917851 0.002646267332 0.171610964053 12 29 19
0.157903625232 0.004637807826 0.206905185701 10 24 16
0.147236684280 0.004159484658 0.199532495787 10 22 14
0.123053220266 0.003423357820 0.186989788770 12 28 18
0.172495901856 0.005277517985 0.216011579845 10 24 16
0.113894446880 0.002976134238 0.178464277419 11 25 16
0.158541377260 0.004653622049 0.207140090695 13 31 20
0.148096885367 0.004642221043 0.206970793413 16 41 27
0.110381098067 0.002880062855 0.176522924765 11 27 18
0.163162841935 0.005110591871 0.213709679253 14 33 21
0.119743607293 0.003195083928 0.182737585697 13 32 21
0.115905721714 0.003000682416 0.178953612713 10 23 15
0.155225719478 0.004374440597 0.202912110035 9 20 13
0.167192013568 0.004789604938 0.209138356200 9 21 14
0.126650501328 0.003431669090 0.187140991826 10 23 15
0.155509506787 0.004376470051 0.202943484497 9 21 14
0.113053453214 0.002968435109 0.178310251442 14 34 22
0.108101439983 0.002709401979 0.172965016967 12 28 18
0.121354622838 0.003327639842 0.185230527866 11 26 17
0.115348167197 0.003039476696 0.179721512647 13 31 20
0.129420435967 0.003118960883 0.181274661115 7 15 10
0.144204816665 0.004052311708 0.197803850160 10 23 15
0.146291930825 0.004543333221 0.205490613782 17 40 25
0.136837245300 0.003946673849 0.196069874969 12 29 19
0.161393636259 0.004435410930 0.203850483883 9 20 13
0.123693872231 0.003422741636 0.186978569078 15 36 23
0.111649164217 0.002684851129 0.172440998575 8 18 12
0.129588236090 0.003593955585 0.190045691318 11 27 18
0.115605464751 0.003065111754 0.180225358070 12 29 19
0.122222765300 0.003019652402 0.179329929195 8 18 12
0.138068671334 0.004192461814 0.200058418417 16 39 25
0.113644578567 0.003033344933 0.179600576070 13 33 22
0.126304983145 0.003370068543 0.186014459190 10 23 15
0.127214653547 0.003584969638 0.189887169067 13 31 20
0.165204509841 0.004940128161 0.211306666045 12 29 19
0.156814263969 0.004859860160 0.210155962805 14 34 22
0.132667589925 0.003647764301 0.190989451802 11 26 17
0.132328797286 0.003430760323 0.187124470949 9 21 14
0.140294484990 0.003698661180 0.191873637521 9 20 13
0.157748554195 0.004634866834 0.206861441241 11 24 15
0.146745212906 0.004268366032 0.201258552246 12 29 19
0.160427716732 0.004754903388 0.208632049786 13 31 20
0.163749537441 0.004810466127 0.209441551406 10 23 15
0.168418304702 0.004955067605 0.211519455884 9 20 13
0.332548315627 0.013349524646 0.294321774371 11 27 18
0.141713077082 0.004074402406 0.198162633753 12 28 18
0.135335366389 0.003960262985 0.196294652266 15 36 23
0.152795773779 0.004536437124 0.205386593187 12 30 20
0.139797035687 0.004142880815 0.199266643601 16 38 24
0.134809204773 0.003769832680 0.193096536569 12 30 20
0.122510706207 0.003390742758 0.186394062292 13 32 21
0.127142552459 0.002999181217 0.178923765085 6 12 8
0.112002607287 0.002736404088 0.173537712885 8 17 11
0.136532399683 0.003858383863 0.194596759266 10 23 15
0.144086963138 0.004140702634 0.199231715015 11 27 18
0.157126882509 0.004651320247 0.207105932782 10 23 15
0.135040042144 0.003491380634 0.188220183340 11 25 16
0.122799361623 0.003164533395 0.182153290215 9 20 13
0.140595945991 0.003915634932 0.195554519429 11 25 16
0.128838361423 0.003420872321 0.186944523706 10 24 16
0.156903041487 0.004614407933 0.206556621255 10 24 16
0.127174436083 0.003555263315 0.189361222967 14 30 18
0.136674918654 0.003864612473 0.194701415829 11 27 18
0.120582554261 0.003256889899 0.183908365667 12 30 20
0.121399135973 0.003369306716 0.186000441513 13 32 21
0.141081657897 0.004033958090 0.197504768938 11 24 15
0.128723728854 0.003483280574 0.188074512666 11 27 18
0.134573838187 0.003576552609 0.189738442721 9 20 13
0.122156698536 0.003178822335 0.182427039862 11 27 18
0.135561306564 0.003960754468 0.196302772216 14 35 23
0.141628147137 0.004036657634 0.197548816147 10 22 14
0.124706617039 0.003514032333 0.188626356917 15 35 22
0.141757844809 0.003776329690 0.193207401786 11 26 17
0.117660044356 0.003234268620 0.183481587182 13 28 17
0.132430714458 0.003831558558 0.194144733907 14 35 23
0.169645103948 0.005116842689 0.213796773938 9 20 13
0.108332880395 0.002767065858 0.174183477894 11 26 17
0.147233976123 0.004643940342 0.206996341590 17 40 25
0.128742932598 0.003145000372 0.181777737191 9 21 14
0.132138613195 0.003507184575 0.188503752498 9 21 14
0.139731982921 0.003930927543 0.195808769760 10 24 16
0.146680477074 0.004305015677 0.201832936255 11 26 17
0.127920761187 0.003667529164 0.191333779876 14 35 23
0.124610284034 0.003446982903 0.187418950814 13 30 19
0.146035614715 0.004031990650 0.197472654738 9 21 14
0.137636974945 0.004064267118 0.197998184040 12 29 19
0.119675047382 0.003198552891 0.182803695654 13 32 21
0.164509337015 0.004895602348 0.210669907240 10 23 15
0.118929155267 0.003285675767 0.184448598979 13 29 18
0.110202307675 0.002853277936 0.175973991626 12 29 19
0.150764130255 0.004187566239 0.199980518081 9 21 14
0.120523409268 0.003141480752 0.181709901763 10 22 14
0.119071108084 0.003200606149 0.182842803226 13 32 21
0.181615449985 0.005633361973 0.220761335077 12 29 19
0.126400335362 0.003634279083 0.190753808400 14 35 23
0.112603958292 0.002840189609 0.175704507898 10 24 16
0.126080704402 0.002889142401 0.176708229375 7 14 9
0.149184823106 0.004338534912 0.202355412301 11 27 18
0.115776640124 0.003011148731 0.179161433375 11 25 16
0.129422295711 0.003464627297 0.187738193025 10 23 15
0.126124535271 0.003339229788 0.185445327192 9 20 13
0.122051651360 0.003369445266 0.186002990999 13 32 21
0.130028499157 0.003705167285 0.191986076287 14 32 20
0.129231597244 0.003603180072 0.190208147071 13 32 21
0.117815347303 0.003009587874 0.179130471364 9 20 13
0.122380200198 0.003405732179 0.186668321976 14 33 21
0.129377349415 0.003790046919 0.193441056153 14 36 24
0.149235919796 0.004200725020 0.200189768368 11 26 17
0.124497125723 0.003490663766 0.188207300343 13 30 19
0.153023071573 0.004533405509 0.205340830998 11 26 17
0.123966711581 0.003486295697 0.188128762700 13 33 22
0.139681769458 0.004294157047 0.201663097577 17 43 28
0.116383652774 0.003125283459 0.181397068251 13 29 18
0.125758431939 0.003625872861 0.190606621312 15 37 24
0.164149638085 0.004950281216 0.211451327612 12 28 18
0.158347414701 0.004820327891 0.209584576590 13 31 20
0.116147279298 0.003024168662 0.179419287963 11 24 15
0.119618906809 0.002919318799 0.177321324748 8 18 12
0.119572244471 0.003180355358 0.182456360986 11 25 16
0.124806406998 0.003204753846 0.182921751724 10 23 15
0.136998512599 0.003773294725 0.193155628865 10 23 15
0.131929042023 0.003712521704 0.192113017277 13 30 19
0.123957216325 0.003272181927 0.184195750455 10 23 15
0.137766730049 0.003923147948 0.195679511122 12 30 20
0.152972652706 0.004262017279 0.201158718966 9 20 13
0.119738800051 0.003229171697 0.183385152892 13 30 19
0.137576236185 0.003679725702 0.191545641643 9 20 13
0.147636763058 0.004281853051 0.201470305713 12 29 19
0.120364009287 0.002814325612 0.175169533579 7 15 10
0.151593216841 0.004533579041 0.205343451016 12 28 18
0.126713074078 0.003701092667 0.191915673999 15 36 23
0.139444057874 0.003829993622 0.194118298584 11 27 18
0.137705332621 0.004211855765 0.200366428030 16 38 24
0.138608080003 0.004100132410 0.198578893575 15 38 25
0.132492106637 0.003892879661 0.195174968896 15 37 24
0.112566469631 0.003024400021 0.179423863237 13 33 22
0.119981348336 0.003261552604 0.183996087547 13 30 19
0.129261888767 0.003383053536 0.186253059763 10 24 16
0.129645441493 0.003525305824 0.188827854536 11 24 15
0.120344824682 0.003250657892 0.183790988858 13 32 21
0.158328975658 0.004498512610 0.204812648357 9 21 14
0.133603112669 0.003604046511 0.190223391986 10 23 15
0.162341988434 0.004620165390 0.206642493339 10 23 15
0.123804407641 0.003204843318 0.182923454007 10 22 14
0.119349732738 0.003207818689 0.182980045115 11 26 17
0.136941514488 0.003850130014 0.194457899823 11 26 17
0.141980449320 0.004078389123 0.198227245346 11 27 18
0.119603889526 0.003272106941 0.184194343409 13 31 20
0.127769659261 0.003612282426 0.190368180338 13 33 22
0.134409605826 0.003734432730 0.192490221734 11 25 16
0.137402595231 0.003789947550 0.193439365567 10 23 15
0.148434122098 0.004261321428 0.201147770786 11 26 17
0.131012751614 0.003506549524 0.188492374265 11 25 16
0.142653675422 0.004138957797 0.199203726552 12 28 18
0.169068678457 0.005193318977 0.214856645991 11 25 16
0.186562558901 0.005310003828 0.216453894385 9 21 14
0.105849514577 0.002623284241 0.171112699436 11 25 16
0.128280367114 0.003630838588 0.190693595202 13 30 19
0.150937887966 0.004004016715 0.197014906310 8 17 11
0.141023955373 0.004025011824 0.197358656192 11 25 16
0.178867340948 0.005184833956 0.214739568851 8 17 11
0.148056774193 0.003970832896 0.196469133431 8 17 11
0.120958568514 0.003243550708 0.183656945266 13 30 19
0.167174699559 0.005155000956 0.214326913256 13 31 20
0.144797423734 0.004231113271 0.200671336540 11 25 16
0.117336025069 0.003159367358 0.182054115699 13 32 21
0.155406213606 0.004215509645 0.200424352089 8 17 11
0.137675128244 0.003621408408 0.190528359351 9 21 14
0.148589018486 0.004264247341 0.201193797675 12 29 19
0.116889612674 0.003212785433 0.183074433908 13 33 22
0.133185941262 0.003912697472 0.195505606346 13 31 20
0.123399490609 0.003333111370 0.185331995084 14 33 21
0.123017977781 0.003447141963 0.187421833562 14 31 19
0.138587657466 0.004179094945 0.199845575944 15 38 25
0.130672235292 0.003874762374 0.194871719456 15 37 24
0.144951646496 0.003997968989 0.196915664927 9 21 14
0.142632552813 0.003819606284 0.193942650079 10 22 14
0.140514956209 0.003862841508 0.194671670542 9 21 14
0.142931067988 0.003982680483 0.196664337981 10 23 15
0.132982265964 0.003679377877 0.191539606177 11 26 17
0.162484832815 0.004824802085 0.209649401507 11 26 17
0.136267051849 0.004180308518 0.199864918553 16 40 26
0.154492134245 0.004291640910 0.201623702099 8 17 11
0.129767364808 0.003688275815 0.191693883660 14 34 22
0.169522641954 0.004982654802 0.211911272476 10 23 15
0.121962091509 0.003359814712 0.185825610536 12 30 20
0.122442860173 0.003176508873 0.182382773945 10 24 16
0.153503726649 0.004587110912 0.206148512892 12 29 19
0.137067539187 0.003907997456 0.195427293148 12 30 20
0.127579620514 0.003381674619 0.186227751023 10 21 13
0.115867752360 0.003068677392 0.180295216260 12 27 17
0.125835887028 0.003568332473 0.189592970026 14 33 21
0.159854748405 0.004564073905 0.205802832931 9 21 14
0.119823436920 0.003369043546 0.185995598672 14 36 24
0.126920711517 0.003652028151 0.191063838305 15 35 22
0.133871482392 0.003628012827 0.190644112202 9 20 13
0.114877066423 0.002993456946 0.178809860611 10 23 15
0.111583683974 0.002597195663 0.170543569623 7 15 10
0.112819471344 0.002900932945 0.176948284272 11 27 18
0.133889270446 0.003887985552 0.195093143587 13 29 18
0.135831697698 0.003366684759 0.185952181165 7 14 9
0.114197974335 0.002994872418 0.178838039902 13 30 19
0.148003382540 0.004169129071 0.199686592479 11 25 16
0.150999604742 0.004487669809 0.204647962112 12 30 20
0.130889258322 0.003557633918 0.189403301476 13 28 17
0.120038114063 0.003286515229 0.184464305992 13 30 19
0.145916215498 0.004248258692 0.200942026328 11 26 17
0.123826663246 0.003121237036 0.181318747227 9 20 13
0.115547354457 0.003068004204 0.180282031268 13 31 20
0.149174827152 0.004437575191 0.203883634812 12 28 18
0.142276902126 0.004093412059 0.198470340188 11 25 16
0.124914991716 0.003372039948 0.186050723363 12 29 19
0.147754758800 0.004319846906 0.202064449115 12 29 19
0.130073188379 0.003749665285 0.192751585874 13 31 20
0.111506958640 0.002916362565 0.177261450000 12 30 20
0.118782276695 0.003253915293 0.183852359115 13 33 22
0.124999566464 0.003520936548 0.188749811001 15 38 25
0.127403918837 0.003377489983 0.186150903785 10 24 16
0.161066269051 0.004740820093 0.208425867375 10 24 16
0.134252815192 0.003404509488 0.186645980732 7 14 9
0.119115176388 0.003138462734 0.181651693596 12 27 17
0.134557619875 0.003896031583 0.195227630027 14 35 23
0.150526979504 0.004454278912 0.204139131029 13 30 19
0.125954379960 0.003162916109 0.182122254140 9 20 13
0.165393009711 0.004983240786 0.211919579409 11 26 17
0.147621463657 0.004369508808 0.202835826299 12 27 17
0.154657218143 0.004658361169 0.207210382086 12 29 19
0.137632059201 0.003726371518 0.192351617699 10 24 16
0.124195529976 0.003455892105 0.187580281936 13 30 19
0.117880482075 0.003137888354 0.181640611372 12 28 18
0.110254224410 0.002891743049 0.176761234494 12 30 20
0.135204332661 0.003727645864 0.192373542042 11 26 17
0.145114485941 0.004306635027 0.201858239847 12 29 19
0.126977142262 0.003317877605 0.185049214642 11 26 17
0.194553910638 0.006175756359 0.227630530564 10 24 16
0.140385458279 0.003953301918 0.196179573923 11 26 17
0.129677375335 0.003417649104 0.186885790920 10 23 15
0.132976617994 0.003803624077 0.193671770081 13 32 21
0.151112662566 0.004268820985 0.201265702520 10 24 16
0.139702986224 0.004047325942 0.197722694148 13 31 20
0.158793273353 0.004571860638 0.205919805999 11 26 17
0.119849126236 0.003327363176 0.185225394272 14 35 23
0.158070390205 0.004850604207 0.210022458954 13 32 21
0.132103922595 0.003447008424 0.187419413358 9 21 14
0.161213071450 0.004995569939 0.212094207210 13 32 21
0.127521460688 0.003626684004 0.190620833785 14 35 23
0.147725682177 0.004233194090 0.200704227190 11 26 17
0.132076410750 0.003255138963 0.183875402785 7 15 10
0.122125352456 0.003325847782 0.185197270692 13 32 21
