0.124612806620 0.003169175933 0.182242322872 10 24 16
0.169732364501 0.004969970527 0.211731299820 10 23 15
0.130031946368 0.003512683237 0.188602214884 10 24 16
0.122348432537 0.003337654935 0.185416169262 13 33 22
0.126122606069 0.003112617520 0.181151685175 9 21 14
0.135229980650 0.004082739497 0.198297702589 15 38 25
0.119037097461 0.003223859019 0.183284528413 13 33 22
0.174992385389 0.004972220445 0.211763245426 8 18 12
0.134138304732 0.003631166095 0.190699328642 10 23 15
0.116625809859 0.003130993441 0.181507473582 11 27 18
0.154287746028 0.004505366347 0.204916610108 10 24 16
0.128514334461 0.003745559129 0.192681201166 14 36 24
0.172524623352 0.005364650030 0.217193883664 10 23 15
0.120415685724 0.003082740669 0.180570218354 9 20 13
0.139770502357 0.004308552575 0.201888194816 15 37 24
0.167776407641 0.004778561074 0.208977488859 9 21 14
0.111174399613 0.002916627770 0.177266823056 13 31 20
0.137825042876 0.003984774084 0.196698792539 12 29 19
0.130660637638 0.003873059742 0.194843172037 15 39 26
0.099620205935 0.002441653817 0.167068723940 11 26 17
0.124607646879 0.003556277192 0.189379221708 13 31 20
0.110107145774 0.002847470545 0.175854521556 11 26 17
0.161505478539 0.004723470381 0.208171301773 13 32 21
0.157347077754 0.004006817561 0.197060833508 8 18 12
0.143978293462 0.003844967868 0.194370953068 8 18 12
0.120860159233 0.003336366426 0.185392306072 13 32 21
0.159594545484 0.004133071735 0.199109251739 8 18 12
0.132016030024 0.003929346535 0.195782515000 15 38 25
0.136875079557 0.003439402231 0.187281458170 11 25 16
0.149751347002 0.004314730234 0.201984638721 12 27 17
0.115503168676 0.003059617091 0.180117600193 12 28 18
0.151180447367 0.004476305272 0.204475066489 12 28 18
0.141444133117 0.004259357422 0.201116863608 13 33 22
0.127997889185 0.003707201757 0.192021209094 14 34 22
0.163911473073 0.005249305964 0.215625980991 14 33 21
0.154445235906 0.004878638962 0.210426300137 13 31 20
0.111974759859 0.002955091892 0.178042679901 13 32 21
0.126040982299 0.003635614940 0.190777177424 13 32 21
0.146277337386 0.003946921694 0.196073979182 9 21 14
0.127921207148 0.003696174412 0.191830626267 14 34 22
0.114138852906 0.003008470271 0.179108295385 12 29 19
0.116739212380 0.003213796603 0.183093638411 13 33 22
0.110918579633 0.002983327721 0.178607947773 13 32 21
0.157720122516 0.004130143396 0.199062216740 10 22 14
0.116350055828 0.003110928570 0.181118914089 12 29 19
0.142733303169 0.003852739412 0.194501820727 10 23 15
0.131386199951 0.003861116223 0.194642683746 14 35 23
0.141702627070 0.003891565777 0.195153008609 11 27 18
0.162208052366 0.005067515088 0.213107536832 13 31 20
0.138552230146 0.003736064393 0.192518252192 9 20 13
0.159418214994 0.004205441629 0.200264665247 9 21 14
0.145569150331 0.004309500905 0.201903005876 12 29 19
0.144203681060 0.004168134676 0.199670715212 12 29 19
0.126761227745 0.003157739797 0.182022848354 8 17 11
0.150981038254 0.003629592279 0.190671773761 8 18 12
0.247356509233 0.009060290426 0.258651200773 11 25 16
0.139767904140 0.004121669354 0.198925981221 12 29 19
0.135771807237 0.004043234416 0.197656044355 15 37 24
0.122829751702 0.003292339812 0.184573215010 10 24 16
0.124291312248 0.003531414299 0.188936855458 15 38 25
0.167032541281 0.004089313388 0.198404076294 8 18 12
0.155839990518 0.004364133244 0.202752612955 9 21 14
0.137182198646 0.003864029743 0.194691629246 11 27 18
0.133992421078 0.003693274865 0.191780451193 11 27 18
0.146712008624 0.004201987897 0.200209827577 10 24 16
0.149603267057 0.004661593588 0.207258298494 14 36 24
0.147071637584 0.003911983787 0.195493718731 9 21 14
0.186507809434 0.004685126277 0.207606474188 12 30 20
0.135544622025 0.003875780133 0.194888779857 12 30 20
0.137355050505 0.003860723242 0.194636079998 11 25 16
0.119383311835 0.003306848997 0.184843952818 13 31 20
0.165949817349 0.005157625158 0.214363275472 11 24 15
0.112998486224 0.003048669471 0.179902517104 13 30 19
0.166002050572 0.004795510009 0.209224269308 9 20 13
0.106603166061 0.002732839686 0.173462330856 11 27 18
0.116065465414 0.003241557241 0.183619312734 13 31 20
0.172765187214 0.005330371274 0.216730290189 10 23 15
0.138296065826 0.004026210359 0.197378243529 12 30 20
0.129240071465 0.003719881906 0.192239890376 14 33 21
0.146840242844 0.004456658686 0.204175479501 12 29 19
0.165453489172 0.005505268428 0.219075238086 15 38 25
0.150291454592 0.004617993429 0.206610107071 12 27 17
0.117136958843 0.003231228217 0.183424074650 14 36 24
0.203350119099 0.004732216687 0.208299710706 12 29 19
0.121895770596 0.003467536480 0.187790725088 14 34 22
0.124886244571 0.003534654224 0.188994618342 14 34 22
0.171553971949 0.005229122189 0.215349262739 9 19 12
0.130648640540 0.003620639343 0.190514871140 12 29 19
0.123960154738 0.003498397057 0.188346183990 14 34 22
0.183619703124 0.005526759814 0.219359942156 9 21 14
0.136337490199 0.003876629962 0.194903023019 11 27 18
0.153301337795 0.004051927109 0.197797592195 9 20 13
0.145047760540 0.004522641563 0.205178184371 14 34 22
0.134896746771 0.003840158475 0.194289877714 11 27 18
0.115194943570 0.003105880890 0.181020902062 13 30 19
0.137928524042 0.004066978994 0.198042212237 13 33 22
0.156324679310 0.005096771668 0.213516865482 16 40 26
0.126782001036 0.003669999943 0.191376736801 14 36 24
0.159589868674 0.004684530695 0.207597676714 10 23 15
0.129129775704 0.003775544800 0.193194015159 14 35 23
0.118652309228 0.003234336637 0.183482873371 13 32 21
0.138399665164 0.003755818918 0.192856970759 9 21 14
0.127159675561 0.003271529701 0.184183511394 9 21 14
0.143838443479 0.004521999983 0.205168481757 15 38 25
0.158650326345 0.004890172211 0.210591987668 13 33 22
0.128577101507 0.003743982994 0.192654170568 14 35 23
0.118815047965 0.003227006487 0.183344156176 13 32 21
0.170778594260 0.003883784480 0.195022850480 9 21 14
0.151865180034 0.004089300895 0.198403874257 11 27 18
0.112226478116 0.002978919572 0.178519934379 12 29 19
0.103684897607 0.002632776999 0.171318850173 12 30 20
0.150530166358 0.003842881966 0.194335797852 11 26 17
0.129256154294 0.003742325452 0.192625735657 13 31 20
0.101493936163 0.002443454446 0.167109782840 11 26 17
0.154223145426 0.004849590044 0.210007820800 13 32 21
0.138804003497 0.004051890567 0.197796997593 12 29 19
0.143143501480 0.004401350769 0.203327343397 15 34 21
0.118061814972 0.003208396409 0.182991029195 12 28 18
0.145484462899 0.004290395616 0.201604198670 12 30 20
0.117215745109 0.003141301507 0.181706445728 13 33 22
0.151627746878 0.004560250604 0.205745350221 12 30 20
0.128852274966 0.003759357404 0.192917517473 15 37 24
0.109332108392 0.002894606239 0.176819553885 13 32 21
0.128957917516 0.003724019145 0.192311133461 14 35 23
0.114065470413 0.003136425739 0.181612385228 13 33 22
0.170515327679 0.005322604858 0.216624979476 14 34 22
0.148738999277 0.004384661143 0.203070016669 11 26 17
0.129346920795 0.003691709537 0.191753353129 15 37 24
0.136268092050 0.003867201837 0.194744890682 11 26 17
0.122835880779 0.003371555110 0.186041806042 14 36 24
0.160894475647 0.004332306610 0.202258533647 9 20 13
0.150837101228 0.004310156017 0.201913236168 11 26 17
0.094807970965 0.002165665451 0.160520652092 9 21 14
0.185046403314 0.005233785516 0.215413259825 12 29 19
0.160107392853 0.004874633304 0.210368693458 13 32 21
0.157376162728 0.004452988531 0.204119416455 9 21 14
0.114583362714 0.002850412371 0.175915061299 10 24 16
0.127473838572 0.003427640176 0.187067726192 12 29 19
0.103481565491 0.002607097439 0.170760026513 11 27 18
0.154071567044 0.004547196493 0.205548841320 10 24 16
0.175813414848 0.004622145958 0.206672016888 11 27 18
0.135555499466 0.003995524011 0.196875515147 14 35 23
0.123664402333 0.003128723708 0.181463603256 10 24 16
0.162626466660 0.005443664728 0.218255023770 17 43 28
0.132080180343 0.003850204521 0.194459154187 14 35 23
0.124964614425 0.003498542153 0.188348787847 12 30 20
0.122735471390 0.003428183372 0.187077607540 13 32 21
0.100325031300 0.002454942781 0.167371272229 11 26 17
0.132297958446 0.003518527227 0.188706748335 10 23 15
0.131526497009 0.003638397820 0.190825841783 11 26 17
0.116676722181 0.003213779186 0.183093307667 14 33 21
0.160647892521 0.004809591288 0.209428854184 10 24 16
0.124199586409 0.003306594499 0.184839210787 11 27 18
0.147433936199 0.004108227265 0.198709491850 10 24 16
0.112588904789 0.002826658513 0.175425035930 10 23 15
0.115013513046 0.003137522514 0.181633552073 13 33 22
0.149612631822 0.004663039213 0.207279720843 13 32 21
0.125560931324 0.003344744419 0.185547356705 10 24 16
0.110160239943 0.002938709209 0.177713054089 13 32 21
0.131295229430 0.003756949988 0.192876328536 13 31 20
0.138766555450 0.004036917705 0.197553058575 12 29 19
0.151251963946 0.004601294250 0.206360764556 13 31 20
0.133606058289 0.003777619763 0.193229400510 11 26 17
0.120527303487 0.003171177809 0.182280687182 11 26 17
0.127621294243 0.003556162674 0.189377188898 12 29 19
0.127644556530 0.003285017465 0.184436279744 9 21 14
0.177736510952 0.004841180393 0.209886359376 9 21 14
0.110073566744 0.002841863020 0.175739008908 11 27 18
0.110602514353 0.002863308361 0.176179957026 11 27 18
0.114707804066 0.002833833629 0.175573341952 9 20 13
0.123271098944 0.003308733143 0.184879052384 10 23 15
0.187341200857 0.005671342427 0.221256352846 10 22 14
0.118552159897 0.002878568603 0.176492391237 9 21 14
0.120639089859 0.003404288428 0.186641940909 14 35 23
0.131872977782 0.003580696644 0.189811695688 11 27 18
0.127717358175 0.003395256128 0.186476727809 10 23 15
0.105231538518 0.002647260175 0.171632423400 12 30 20
0.134004572017 0.003397538539 0.186518503848 8 18 12
0.158934583393 0.004951763133 0.211472425552 13 33 22
0.131006722385 0.003434351850 0.187189745913 10 23 15
0.124075422667 0.003552547873 0.189313000529 13 31 20
0.155340536800 0.004982988144 0.211915998032 15 38 25
0.100593114734 0.002462124905 0.167534332484 11 27 18
0.106150176665 0.002706336737 0.172899765208 12 30 20
0.119440625140 0.003286323914 0.184460726573 14 34 22
0.149769364260 0.004739238819 0.208402691692 15 38 25
0.147345222886 0.004063491352 0.197985585610 10 24 16
0.148199493817 0.003700828308 0.191911104547 8 18 12
0.157073940414 0.004723137822 0.208166416182 11 26 17
0.169785603038 0.004420223697 0.203617550550 11 26 17
0.132461737237 0.003692163301 0.191761209227 11 27 18
0.126195570258 0.003387206775 0.186329247057 10 24 16
0.112044910884 0.002856156720 0.176033154080 11 26 17
0.180819367516 0.003166437244 0.182189811956 8 18 12
0.099375966330 0.002447141944 0.167193804214 11 25 16
0.164046967769 0.005147619378 0.214224564317 12 29 19
0.154392762721 0.004752604292 0.208598418362 12 28 18
0.153756700915 0.003422859543 0.186980716067 9 21 14
0.104232443214 0.002626990883 0.171193254317 11 25 16
0.144488842914 0.004521247421 0.205157099575 15 38 25
0.154372180309 0.004195650590 0.200109126872 11 25 16
0.123505873483 0.003426143109 0.187040487459 12 29 19
0.115399533208 0.003168449120 0.182228390091 14 36 24
0.158506789238 0.004811096064 0.209450693235 11 26 17
0.127009104515 0.003687082743 0.191673211921 15 38 25
0.138525617648 0.004263000707 0.201174189720 15 37 24
0.154442678651 0.004772638394 0.208891115674 12 29 19
0.104184327237 0.002649753249 0.171686285145 12 30 20
0.176385279186 0.005496760512 0.218962325959 10 24 16
0.132997818771 0.003929763700 0.195789443265 14 34 22
0.152091854365 0.004848485771 0.209991879689 16 41 27
0.130785300158 0.003471435020 0.187861076223 9 21 14
0.135127945307 0.004060846818 0.197942626402 15 37 24
0.155600118781 0.004603405968 0.206392328802 12 28 18
0.132478194869 0.003722331208 0.192282073625 11 26 17
0.120047159037 0.003052176635 0.179971476798 9 21 14
0.123793625027 0.003438674620 0.187268250674 12 28 18
0.148395243577 0.004366747165 0.202793084796 12 29 19
0.138615249853 0.003807687115 0.193740705719 10 23 15
0.109733651786 0.002833939376 0.175575525819 12 30 20
0.120794426886 0.003142246685 0.181724668300 9 21 14
0.115017331280 0.003127367073 0.181437371536 12 29 19
0.113530175265 0.003041640343 0.179764147354 12 28 18
0.123904340000 0.003312444381 0.184948149715 10 23 15
0.136434164603 0.004111703639 0.198765525232 14 33 21
0.100397245833 0.002465208018 0.167604233063 11 27 18
0.117360102486 0.003212563942 0.183070226719 13 31 20
0.119630533899 0.003362802141 0.185880670750 14 35 23
0.137833992551 0.003390121297 0.186382674058 9 21 14
0.165432658562 0.004875308515 0.210378406092 10 24 16
0.166196221385 0.004610590834 0.206499650082 9 20 13
0.136595527537 0.003735994808 0.192517056940 10 23 15
0.126874029356 0.003641496287 0.190879995624 13 31 20
0.153278882252 0.004483896934 0.204590595468 10 24 16
0.170449771356 0.005252603305 0.215671119885 10 23 15
0.195210398611 0.004129354576 0.199049542895 9 19 12
0.115878062376 0.003084314835 0.180600948487 11 26 17
0.149980129500 0.003882422942 0.195000058112 8 18 12
0.125296940693 0.003272088753 0.184194002128 11 27 18
0.146358721486 0.004644966117 0.207011581228 16 40 26
0.111731783460 0.002895140172 0.176830425143 11 27 18
0.107241144019 0.002781254998 0.174480700221 12 30 20
0.146151489481 0.003374003721 0.186086833116 9 21 14
0.155024489217 0.003704637240 0.191976920961 9 21 14
0.150478252401 0.004431044061 0.203783561818 12 30 20
0.165459166181 0.004491259032 0.204702506489 10 24 16
0.145473587659 0.004294086086 0.201661986748 11 27 18
0.129935235424 0.003180876821 0.182466332517 9 21 14
0.146782043261 0.004657249291 0.207193894811 16 42 28
0.156301243459 0.004454012041 0.204135054072 10 24 16
0.144333066146 0.003948491618 0.196099972468 10 23 15
0.114058285817 0.002779771546 0.174449673500 9 21 14
0.119479450240 0.003357999335 0.185792136040 14 35 23
0.138074933369 0.003691183493 0.191744244849 11 26 17
0.143635298075 0.003736355480 0.192523251925 9 20 13
0.153908905067 0.004743864928 0.208470478960 12 30 20
0.103971092529 0.002652377575 0.171742946018 11 27 18
0.160769915201 0.005125175415 0.213912766278 13 32 21
0.147785097912 0.003597946261 0.190116006619 8 18 12
0.112425519405 0.002987262854 0.178686443709 14 36 24
