0.135452328306 0.003582382512 0.189841480135 12 25 15
0.152761812347 0.003793159535 0.193493996836 14 31 19
0.149490731185 0.004188986773 0.200003128426 12 27 17
0.132559456171 0.003397627381 0.186520129596 12 27 17
0.144200690602 0.003481596462 0.188044197405 9 19 12
0.142642921206 0.003615418428 0.190423253766 11 24 15
0.157975688036 0.003676634032 0.191491981674 8 17 11
0.156270027209 0.004025336413 0.197363961247 8 17 11
0.148950013310 0.003683622239 0.191613228326 9 18 11
0.152350668638 0.003837944366 0.194252530150 11 25 16
0.150604087279 0.003776966800 0.193218266611 13 26 15
0.144783499781 0.003825381963 0.194040355294 13 30 19
0.153705076275 0.003804876623 0.193693026657 9 17 10
0.150462968550 0.003913878013 0.195525267062 8 17 11
0.151215642306 0.003796580731 0.193552152568 9 19 12
0.152177827647 0.003928955703 0.195776023618 9 21 14
0.146992539955 0.003540808186 0.189104236939 13 30 19
0.127027421444 0.002455606726 0.167386359501 6 11 7
0.153789958772 0.004010116780 0.197114905397 12 28 18
0.147536963379 0.003729587182 0.192406931593 11 23 14
0.146540694388 0.003739572091 0.192578483550 13 28 17
0.136740919850 0.003293068089 0.184586823432 10 20 12
0.153354851283 0.003932970786 0.195842690132 10 20 12
0.151320496195 0.003995854424 0.196880941933 10 21 13
0.154721535701 0.003778785820 0.193249280173 9 20 13
0.150582633604 0.003961418651 0.196313744347 14 30 18
0.167405225927 0.004121954356 0.198930566171 9 19 12
0.155815094734 0.003928865444 0.195774524439 12 25 15
0.159178037275 0.003865191350 0.194711136731 11 25 16
0.158556823294 0.004091805403 0.198444370399 12 27 17
0.164384862944 0.004356077591 0.202627783989 10 22 14
0.157994085612 0.003892372141 0.195166486781 10 20 12
0.146972963773 0.003716199803 0.192176440264 9 20 13
0.128664441988 0.003432059114 0.187148081364 13 28 17
0.157900089557 0.004070353038 0.198096963645 15 33 20
0.163948777661 0.003850175139 0.194458659530 10 21 13
0.149677854658 0.003906231889 0.195397858461 11 24 15
0.141999286302 0.003853574384 0.194515870635 14 32 20
0.143749450373 0.003810299493 0.193785002794 10 23 15
0.145503108538 0.003676605181 0.191491480784 13 28 17
0.145869399813 0.003585822290 0.189902222166 10 23 15
0.122360916774 0.002798961239 0.174850181448 14 30 18
0.144301599439 0.003659716165 0.191197816078 17 37 22
0.156535838527 0.004162500252 0.199580703967 11 24 15
0.127568175012 0.003365091174 0.185922837034 17 35 20
0.149107146994 0.003858387270 0.194596816535 12 27 17
0.158231687423 0.003907809785 0.195424164812 11 23 14
0.129047703693 0.002740821277 0.173631039347 9 19 12
0.153824015384 0.003829104378 0.194103274035 12 26 16
0.157147031494 0.003812152197 0.193816406109 9 18 11
0.151122640511 0.003753281681 0.192813532909 10 20 12
0.161728192154 0.004216737418 0.200443808157 10 22 14
0.142832463903 0.003589396508 0.189965297107 12 23 13
0.147032545081 0.003672071072 0.191412730565 9 19 12
0.153401968965 0.003878221594 0.194929693221 8 18 12
0.184795032414 0.004813554725 0.209486366365 8 18 12
0.139887331767 0.003892527247 0.195169079122 17 39 24
0.148241682789 0.003817746146 0.193911161792 11 25 16
0.158542585621 0.004027644127 0.197401670108 12 25 15
0.146874832316 0.003568613139 0.189597940687 12 25 15
0.149403155071 0.003700224305 0.191900663541 9 20 13
0.146790310919 0.003666830127 0.191321622919 9 19 12
0.162673977921 0.004031699741 0.197467905391 11 26 17
0.150777409540 0.003871152202 0.194811179055 12 26 16
0.148769157274 0.003596183949 0.190084961269 7 15 10
0.147479267043 0.003763457282 0.192987622620 11 25 16
0.154562928495 0.004026427421 0.197381790505 11 24 15
0.154059123833 0.003970653347 0.196466172143 12 27 17
0.157755074914 0.003925816806 0.195723873666 10 22 14
0.161528477061 0.004000080703 0.196950328895 11 25 16
0.150697739846 0.003990546106 0.196793720714 13 27 16
0.172702234433 0.004081917810 0.198284398651 12 26 16
0.146782268292 0.003868558188 0.194767655769 11 25 16
0.140626395361 0.003669489211 0.191367858790 9 19 12
0.138116909156 0.003449574215 0.187465903896 13 28 17
0.136256442021 0.003667912885 0.191340452494 13 27 16
0.163608097401 0.003819804052 0.193945997280 12 26 16
0.146963192365 0.003964945010 0.196371978327 13 28 17
0.164408358241 0.004164970520 0.199620177073 9 19 12
0.135598792075 0.003478163805 0.187982376778 11 23 14
0.148458437187 0.003499837147 0.188372024238 11 23 14
0.144806413630 0.003514509237 0.188634889617 9 21 14
0.147238682988 0.003732735898 0.192461063089 13 29 18
0.163016643385 0.003992960316 0.196833398293 11 25 16
0.144730584824 0.003946793550 0.196071857185 13 29 18
0.155140480061 0.004192423943 0.200057816030 13 29 18
0.189538625874 0.005286337663 0.216131844226 9 18 11
0.153650634106 0.003986808923 0.196732268483 11 25 16
0.130692861289 0.003581988633 0.189834522265 16 34 20
0.153314644810 0.003730008284 0.192414172776 8 17 11
0.159524283188 0.004070950494 0.198106655545 11 26 17
0.157942112108 0.003958819506 0.196270800172 7 15 10
0.158110289618 0.004004602948 0.197024520916 12 27 17
0.158924619699 0.004481787445 0.204558506611 15 31 18
0.143845295201 0.003869382169 0.194781482911 17 38 23
0.144856263825 0.003751598779 0.192784710599 9 20 13
0.139520868557 0.003631095854 0.190698099006 12 26 16
0.148177528235 0.003752629704 0.192802367811 15 30 17
0.139014460939 0.003370782798 0.186027599604 9 18 11
0.161366861819 0.004339009954 0.202362797582 13 29 18
0.141312821088 0.003637782626 0.190815085991 10 22 14
0.152050222598 0.004014670623 0.197189490981 10 23 15
0.144941228511 0.003686245077 0.191658695458 12 28 18
0.162821106668 0.003945685348 0.196053504098 11 25 16
0.157361405655 0.003907709150 0.195422487260 11 25 16
0.137485420042 0.003707796690 0.192031480433 13 29 18
0.152821147403 0.003993144894 0.196836431179 11 27 18
0.156318607715 0.004106129873 0.198675670073 9 19 12
0.148366505246 0.003845713859 0.194383522707 15 33 20
0.146655741163 0.003882397874 0.194999638411 12 25 15
0.150238727054 0.003881527632 0.194985067554 13 29 18
0.151296755109 0.004212546347 0.200377378229 13 29 18
0.139579087072 0.003645423879 0.190948596497 12 26 16
0.165936307852 0.004436079051 0.203860718940 10 23 15
0.154680550706 0.003957651316 0.196251492722 14 30 18
0.157480120772 0.004234079776 0.200718223602 11 24 15
0.143528101435 0.003785002106 0.193355190264 9 21 14
0.159205507251 0.004347142733 0.202489150887 13 29 18
0.144321570519 0.003646840390 0.190973325747 11 22 13
0.142155969221 0.003550316701 0.189273359654 11 25 16
0.144184370244 0.003801835393 0.193641406768 13 30 19
0.142044138241 0.003833963588 0.194185346295 13 29 18
0.133317664796 0.003365788976 0.185935687440 12 24 14
0.145631976325 0.003510379072 0.188560967626 11 26 17
0.146393022087 0.004057075055 0.197881323582 14 28 16
0.146322517015 0.003959212773 0.196277299112 16 35 21
0.154409263504 0.004006094322 0.197048976166 14 30 18
0.133967091969 0.003655549380 0.191125225505 16 34 20
0.148861434340 0.004070908677 0.198105977219 15 34 21
0.143698623109 0.003944368085 0.196031684255 13 30 19
0.145999557890 0.003944043631 0.196026309083 11 25 16
0.160722358425 0.004384327460 0.203064865168 10 22 14
0.143871770089 0.003715166765 0.192158631385 11 27 18
0.144648006443 0.003847812526 0.194418875664 12 23 13
0.146501216749 0.003868143731 0.194760700057 12 25 15
0.152186447221 0.003949060692 0.196109392945 8 16 10
0.161459330393 0.004420270561 0.203618270144 9 21 14
0.143737178316 0.003704385616 0.191972574420 9 19 12
0.149017702415 0.003851601588 0.194482671531 9 20 13
0.142428585332 0.003588914640 0.189956795942 7 15 10
0.151049414436 0.004066381683 0.198032516380 13 29 18
0.140826749345 0.003824399638 0.194023744578 12 26 16
0.146546102336 0.003605328355 0.190245941432 11 23 14
0.143519566650 0.003801302414 0.193632357487 13 29 18
0.156501574004 0.004249971731 0.200969031533 13 31 20
0.159102602036 0.004348665725 0.202512795020 10 21 13
0.146670292375 0.004022520389 0.197317926884 16 33 19
0.140443701757 0.003772479412 0.193141715855 17 37 22
0.156235248700 0.003887337016 0.195082295481 8 16 10
0.144030513485 0.003663724543 0.191267595038 9 17 10
0.145513883960 0.003916069815 0.195561758800 12 24 14
0.149179673762 0.003772418295 0.193140672846 10 23 15
0.143395523453 0.003759870962 0.192926301764 10 23 15
0.148602603009 0.003869895717 0.194790099729 10 21 13
0.146594513725 0.003972359945 0.196494315343 12 27 17
0.152501821919 0.003757957125 0.192893561984 10 22 14
0.144088063564 0.003945370606 0.196048290995 11 24 15
0.144953785026 0.003827442379 0.194075186865 10 21 13
0.142449969839 0.003734474503 0.192490939466 16 33 19
0.146431679609 0.003494356169 0.188273638479 10 22 14
0.144247880060 0.003679772253 0.191546449360 8 18 12
0.152712880398 0.003949150498 0.196110879525 13 28 17
0.150631359615 0.003837661954 0.194247765407 13 30 19
0.142814156618 0.003680388806 0.191557146762 10 20 12
0.144776820145 0.003701427251 0.191921456972 10 22 14
0.137539245993 0.003384417080 0.186278079570 10 21 13
0.147177290410 0.003811213688 0.193800499653 10 22 14
0.145626679825 0.003711593986 0.192097013642 11 24 15
0.144683345576 0.003650128293 0.191030700810 13 28 17
0.151755114067 0.004092624998 0.198457619076 11 26 17
0.150764171795 0.004173073068 0.199749540479 11 25 16
0.161630954107 0.004046489637 0.197709074619 7 14 9
0.147346049597 0.003732683455 0.192460161764 7 15 10
0.140875927045 0.003760052285 0.192929403064 13 27 16
0.168085534966 0.004109644320 0.198732336242 11 24 15
0.150911116865 0.003822206530 0.193986649748 8 17 11
0.141199945740 0.003718976462 0.192224291620 12 26 16
0.149594420650 0.003895941913 0.195226132238 10 23 15
0.142579360397 0.003847429614 0.194412426302 13 28 17
0.141153086649 0.003796814449 0.193556124178 14 28 16
0.148596323984 0.004018407321 0.197250650762 15 32 19
0.148528526934 0.003946827673 0.196072422251 11 25 16
0.151338246056 0.003851438915 0.194479933482 11 24 15
0.138819993793 0.003727000671 0.192362442516 13 27 16
0.136952720459 0.003700591837 0.191907016960 11 24 15
0.149096363968 0.003971611118 0.196481967566 13 27 16
0.153793957508 0.003984124039 0.196688095993 10 22 14
0.154045107159 0.004099073530 0.198561797433 11 24 15
0.131960493725 0.003069424866 0.180309853944 8 16 10
0.179173999679 0.005051304771 0.212880059728 9 18 11
0.145068712790 0.003939168942 0.195945515414 13 31 20
0.144919033631 0.003679522628 0.191542117950 11 22 13
0.147063048065 0.004228430271 0.200628911533 12 26 16
0.165457961914 0.004209298505 0.200325868494 8 16 10
0.142414189009 0.003752353742 0.192797641590 12 26 16
0.148862235520 0.003726728849 0.192357765875 9 19 12
0.152520111110 0.003905606464 0.195387429557 11 23 14
0.141438977658 0.003663131305 0.191257270992 11 24 15
0.143349019302 0.003538709076 0.189066860432 14 29 17
0.159802270252 0.004276611911 0.201388069893 12 25 15
0.141437986698 0.003303883235 0.184788676928 9 19 12
0.153243991824 0.004200370120 0.200184130509 13 30 19
0.146268237639 0.003856838571 0.194570776962 13 29 18
0.165449829528 0.004071140901 0.198109744125 9 20 13
0.147184065447 0.003701252925 0.191918443950 12 23 13
0.151325451255 0.003872151366 0.194827938193 12 27 17
0.149596065621 0.003930158866 0.195796005722 13 29 18
0.134570812160 0.003576155766 0.189731424860 12 28 18
0.158809984623 0.003752311944 0.192796925708 11 23 14
0.150791192260 0.003962887231 0.196338000549 12 25 15
0.162770413691 0.004281401498 0.201463223286 12 25 15
0.142035891825 0.003551477956 0.189293993546 8 16 10
0.140864629845 0.003780375248 0.193276371123 12 28 18
0.154694347426 0.003967376718 0.196412115219 10 24 16
0.155647643436 0.004063061352 0.197978601730 11 23 14
0.152872142294 0.003745682369 0.192683314401 12 25 15
0.157361604537 0.004168551586 0.199677372206 12 27 17
0.161559345539 0.004079791210 0.198249958564 10 22 14
0.148398574892 0.003607333409 0.190281202464 12 27 17
0.132617914102 0.003530659521 0.188923393842 15 33 20
0.148802923198 0.003567408705 0.189576608042 7 14 9
0.139327042044 0.003703246595 0.191952896557 11 23 14
0.151066128213 0.004030334174 0.197445608243 15 36 23
0.152086662311 0.003899035732 0.195277795778 12 26 16
0.142471367832 0.003810172533 0.193782850454 17 39 24
0.138656581027 0.003643623979 0.190917164851 13 28 17
0.142534478683 0.003663688030 0.191266959641 12 27 17
0.134896581589 0.003387037855 0.186326149582 11 23 14
0.149363255178 0.003749271885 0.192744844724 9 20 13
0.159074207752 0.003723250462 0.192297900770 9 19 12
0.150499291028 0.003868143507 0.194760696286 8 17 11
0.141877572236 0.003859746072 0.194619657472 11 25 16
0.146419190138 0.003898194138 0.195263744749 17 38 23
0.145930330863 0.003854554247 0.194532355988 10 21 13
0.151512202035 0.003739059020 0.192569675846 11 23 14
0.171556087044 0.004077460383 0.198212197279 10 20 12
0.165393821724 0.004543998292 0.205500640142 10 21 13
0.151322350177 0.003987932860 0.196750753940 11 23 14
0.147775296163 0.003794468180 0.193516246170 10 23 15
0.149968407840 0.003966483013 0.196397365947 12 29 19
0.140055446841 0.003755565096 0.192852626186 12 27 17
0.150631389504 0.003953070362 0.196175743577 11 24 15
0.145553447712 0.003795897439 0.193540540310 11 22 13
0.145417495743 0.003237121592 0.183535521469 10 22 14
0.155378652011 0.004038184633 0.197573722801 10 23 15
0.160468677737 0.003948365598 0.196097886209 7 15 10
0.169071242486 0.004103084647 0.198626543358 10 20 12
0.150792107881 0.003862261577 0.194661927997 13 27 16
0.130712162248 0.003228523649 0.183372884473 12 23 13
0.159293556902 0.003965893258 0.196387631702 10 23 15
0.146238077944 0.003815431258 0.193871961220 9 19 12
0.165990920567 0.003997257846 0.196903988698 11 20 11
0.135462614811 0.003718066509 0.192208612632 13 27 16
0.154617201594 0.003791640249 0.193468159802 11 25 16
0.166647249514 0.004399435788 0.203297850605 9 21 14
0.159361910584 0.003908490579 0.195435512670 10 22 14
0.144882371691 0.003652983246 0.191080492814 12 27 17
0.151580481003 0.003539908619 0.189088221151 11 23 14
0.168326499067 0.004211743883 0.200364653868 10 22 14
0.151514021872 0.003678399190 0.191522621972 11 25 16
